ply
format ascii 1.0
element vertex 722
property float x
property float y
property float z
property float nx
property float ny
property float nz
property uchar diffuse_red
property uchar diffuse_green
property uchar diffuse_blue
end_header
-0.0700963 0.679456 4.2864 -0.394807 -0.0999473 -0.913312 142 135 122
-0.0635741 0.683485 4.27565 0.104653 -0.616222 -0.780588 145 138 126
-0.0677421 0.679661 4.28641 -0.396126 -0.109614 -0.91163 135 127 112
-0.0545225 0.678052 4.27476 -0.279458 -0.570236 -0.772486 144 137 124
-0.0344364 0.671208 4.24685 -0.392085 -0.0636236 -0.917726 144 137 124
-0.0235364 0.669251 4.22416 0.116405 0.501144 -0.857499 144 138 125
0.0174082 0.668236 4.25227 -0.0908512 0.566189 -0.819254 136 127 110
0.0175415 0.670546 4.25953 -0.0908156 0.565421 -0.819788 137 128 111
0.067763 0.667051 4.26576 -0.423006 -0.172889 -0.88948 137 129 112
0.0994167 0.661674 4.25702 -0.372615 -0.433366 -0.820581 136 127 110
0.116967 0.656392 4.21888 0.398485 0.200431 -0.895007 143 137 123
0.119106 0.658323 4.23587 -0.30046 0.315733 -0.90002 136 127 110
0.120361 0.66056 4.24349 -0.302137 0.314423 -0.899917 137 128 111
0.129061 0.660542 4.2405 -0.295334 0.32878 -0.89704 137 128 112
0.128884 0.660611 4.24066 -0.297851 0.324827 -0.897648 137 128 112
0.34066 0.577065 3.79414 0.170327 0.115337 -0.978614 119 117 110
0.350295 0.577995 3.79178 0.168419 0.470503 -0.866176 139 135 125
0.34706 0.579354 3.7986 0.246404 0.592724 -0.766788 133 126 111
0.353805 0.579931 3.80643 0.289581 -0.0307232 -0.95666 139 136 125
0.358704 0.580132 3.8096 0.372642 0.0600531 -0.92603 131 123 107
0.365016 0.581609 3.82073 0.365101 0.079904 -0.927532 133 124 108
0.392937 0.571383 3.78467 0.427888 0.374895 -0.822414 131 125 111
0.40434 0.572072 3.78182 0.263496 0.569718 -0.778455 132 125 113
0.411025 0.574207 3.78556 0.261833 0.566734 -0.781189 133 127 114
0.410063 0.574489 3.78688 -0.218063 0.432782 -0.874727 126 128 124
0.412774 0.571431 3.79149 0.431947 0.36436 -0.825023 131 125 111
0.418705 0.575335 3.81005 0.257558 0.575185 -0.776419 131 125 111
0.42822 0.57495 3.80817 -0.175978 0.495236 -0.850749 131 126 113
0.448244 0.569573 3.79106 -0.379546 0.139652 -0.914572 120 119 114
0.475225 0.585463 3.94203 0.330293 0.714096 -0.61723 123 116 101
0.577679 0.568866 3.88292 -0.384457 0.237326 -0.892115 95 95 91
0.588135 0.565952 3.86797 -0.45252 -0.034918 -0.89107 102 101 95
0.591753 0.570815 3.89877 0.136872 0.267992 -0.953649 95 96 91
0.615098 0.560207 3.82464 0.146025 0.00523078 -0.989267 99 101 101
0.621427 0.560513 3.82365 0.17747 0.0487122 -0.98292 103 102 95
0.621062 0.559737 3.82218 0.191151 -0.138635 -0.971721 102 101 95
0.626544 0.561693 3.83295 0.192985 -0.0896393 -0.977099 94 95 91
0.658828 0.554468 3.8278 -0.244127 0.481374 -0.841832 84 84 80
0.687385 0.551184 3.80252 -0.291079 0.0122157 -0.956621 82 87 88
0.692965 0.551805 3.79949 -0.293545 0.0301771 -0.955469 84 88 89
0.719532 0.545712 3.7896 -0.245038 0.492078 -0.835353 74 73 67
0.728129 0.544776 3.78149 0.140993 0.527571 -0.837729 110 102 86
0.734978 0.54145 3.78588 -0.0745813 0.6802 -0.729222 91 91 87
0.739679 0.547153 3.7993 0.223695 -0.555876 -0.800602 93 94 89
0.776586 0.533437 3.7526 -0.519404 0.193241 -0.832393 87 92 92
0.789464 0.533605 3.73953 -0.487057 0.159106 -0.858755 89 94 92
0.833785 0.552908 3.90659 -0.544512 -0.147578 -0.825668 97 87 70
0.848176 0.542044 3.85145 0.790318 0.289797 -0.539829 92 82 67
0.92783 1.1933 8.7167 0.433713 -0.03569 -0.900344 37 34 26
0.976436 1.20012 8.77691 0.443713 -0.0417999 -0.895194 40 38 31
0.991416 1.19824 8.77058 0.424394 -0.0417938 -0.904513 41 38 32
1.0321 1.19654 8.77733 0.453302 -0.023907 -0.891036 41 37 32
1.03396 1.1977 8.78094 0.449403 -0.0433979 -0.892274 41 38 32
1.0571 1.19662 8.78931 0.453382 -0.0210411 -0.891068 40 37 32
1.08163 1.19624 8.79977 0.228103 -0.0912023 -0.969356 38 36 31
1.36465 1.20006 9.00581 0.41473 -0.0090512 -0.909899 31 30 25
1.45963 1.18697 9.04849 0.478961 0.00609935 -0.877815 30 27 23
1.47562 1.20001 9.08175 0.381214 -0.0185751 -0.9243 33 30 26
1.5418 1.19989 9.15877 -0.060134 -0.906253 -0.418436 24 23 22
1.60022 1.19592 9.16494 -0.093908 -0.911199 -0.40112 22 23 21
-1.51126 0.739638 3.73065 0.170266 -0.899534 -0.402303 151 152 144
-1.49181 0.741119 3.74585 0.472307 -0.750548 -0.462173 151 152 145
-1.49344 0.743551 3.75736 0.126505 -0.872806 -0.471387 151 152 145
-1.47226 0.736678 3.75289 0.02057 -0.745192 -0.666532 150 152 144
-1.46243 0.739864 3.74429 -0.000233382 -0.701192 -0.712972 151 152 145
-1.45267 0.735908 3.74794 0.452323 -0.762209 -0.463078 151 152 145
-1.45386 0.738193 3.75929 0.0320072 -0.769073 -0.638359 150 152 144
-1.44513 0.739524 3.77056 -0.0257238 -0.659245 -0.751488 150 152 144
-1.44371 0.740341 3.78173 0.0117643 -0.741839 -0.670475 150 152 144
-1.4068 0.739601 3.78327 0.656483 -0.754208 -0.0141612 150 151 143
-1.40631 0.738268 3.79608 0.167888 -0.790244 -0.589345 150 152 145
-1.39861 0.741923 3.81778 0.27059 -0.928226 -0.255298 149 151 144
-1.27364 0.726965 3.77242 0.233366 -0.650727 -0.722561 150 150 144
-1.27226 0.726034 3.78049 0.242733 -0.628151 -0.739261 150 150 144
-1.271 0.725117 3.78862 0.2464 -0.620057 -0.74486 149 149 143
-1.25855 0.727677 3.79244 0.725802 -0.687897 -0.00314298 148 149 144
-1.26003 0.726647 3.81159 0.246426 -0.623447 -0.742016 149 149 142
-1.25188 0.730047 3.81862 0.245595 -0.625667 -0.740422 149 149 142
-1.25054 0.729145 3.8268 0.243447 -0.633029 -0.734852 149 149 142
-1.32267 0.769175 4.08445 0.850279 -0.221338 -0.47753 146 147 141
-1.32854 0.779286 4.1193 0.161476 -0.610326 -0.775518 147 147 141
-1.18675 0.769481 4.17568 -0.122662 -0.632558 -0.764738 146 146 137
-1.16867 0.781808 4.23807 -0.0547397 0.369611 -0.927573 146 147 141
-1.15013 0.778829 4.24987 0.822922 0.115656 -0.556259 143 142 135
-1.06733 0.810342 4.52875 0.950906 0.267881 -0.154974 141 140 134
-1.06738 0.81036 4.52873 0.950479 0.269151 -0.155394 141 140 134
-1.06565 0.82348 4.61827 0.957099 0.2444 -0.155658 140 138 132
-1.04013 0.819801 4.62002 0.919626 0.341276 -0.19447 139 137 131
-1.01682 0.816846 4.62347 0.913877 0.351683 -0.202852 139 138 132
-1.0222 0.82814 4.66807 0.914864 0.348083 -0.204603 140 139 133
-1.01251 0.818541 4.64651 0.914752 0.348636 -0.204163 140 139 133
-1.01246 0.818564 4.64663 0.917262 0.34321 -0.20208 140 139 133
-0.406483 0.626433 3.62171 0.442846 -0.482892 -0.755449 145 145 137
-0.386901 0.624727 3.61971 0.680148 0.626214 -0.381124 142 142 135
-0.702306 0.776724 4.51887 0.343899 0.352653 -0.87027 149 146 138
-0.891055 0.866231 5.04961 -0.171031 -0.0504864 -0.983971 141 138 131
-0.651209 0.780491 4.58191 0.0081557 -0.901227 -0.43327 146 142 131
-0.102653 0.692185 4.28647 -0.392462 -0.163344 -0.905148 143 137 125
-0.106013 0.692964 4.29475 -0.391166 -0.156501 -0.906916 143 137 125
-0.0957562 0.689518 4.29328 -0.273767 -0.6486 -0.71019 144 138 125
-0.0807361 0.689204 4.27004 0.0921835 -0.660243 -0.745373 144 138 126
-0.0755871 0.685258 4.27999 -0.3967 -0.163691 -0.903236 144 138 125
-0.0673869 0.685941 4.25759 0.105749 -0.607922 -0.786923 144 138 128
-0.075435 0.687499 4.27694 0.138511 -0.646972 -0.749828 146 140 128
-0.0655604 0.684729 4.26666 0.106102 -0.609122 -0.785947 145 139 126
-0.0694457 0.685134 4.28289 -0.396351 -0.123975 -0.90969 144 138 125
-0.054477 0.685455 4.26922 0.0971639 -0.631359 -0.76938 146 139 128
-0.0314099 0.6792 4.24583 -0.0541982 0.589148 -0.806206 146 140 128
-0.0195786 0.682683 4.25318 -0.0277359 0.708226 -0.705441 147 141 129
0.0767362 0.670908 4.27333 -0.422682 -0.271934 -0.864518 138 130 113
0.0839958 0.670854 4.25652 0.475084 -0.159661 -0.865334 139 131 114
0.0897594 0.668719 4.26232 0.470213 -0.0631779 -0.880289 137 129 113
0.0977984 0.666975 4.25106 0.463072 -0.288087 -0.838195 145 140 125
0.106162 0.666175 4.25049 -0.312782 0.290354 -0.904358 138 129 113
0.124377 0.665749 4.23655 -0.293822 0.327924 -0.89785 139 130 114
0.133209 0.665674 4.23335 -0.294241 0.329463 -0.897149 146 141 127
0.140927 0.664986 4.2523 -0.308953 0.310874 -0.898836 145 139 126
0.303762 0.593417 3.83513 -0.733025 -0.325422 -0.597306 117 118 117
0.344476 0.583262 3.79866 0.0495875 0.480441 -0.875624 123 122 115
0.360581 0.585559 3.81212 0.300477 0.270547 -0.914614 135 127 112
0.397782 0.576313 3.78264 0.263498 0.569721 -0.778452 135 129 116
0.409226 0.576984 3.77969 0.261714 0.569318 -0.779348 135 130 117
0.415925 0.579114 3.78337 0.261087 0.568765 -0.779961 136 131 118
0.423648 0.580268 3.80781 0.255513 0.574603 -0.777525 135 129 116
0.431407 0.579132 3.80313 -0.209644 0.453065 -0.866477 135 130 117
0.554879 0.573804 3.85643 0.162034 0.185222 -0.969246 111 111 104
0.593575 0.57597 3.89969 0.0513973 0.450053 -0.891521 101 102 97
0.622951 0.566655 3.83596 0.194352 -0.16342 -0.967223 101 102 97
0.623395 0.567186 3.83571 0.178856 0.0473031 -0.982737 102 102 98
0.654976 0.560763 3.83654 -0.392773 0.254827 -0.883625 92 92 89
0.671233 0.558117 3.81471 -0.0802563 0.620338 -0.780217 90 94 96
0.685458 0.557017 3.80291 -0.45848 0.0817795 -0.884934 90 93 95
0.688442 0.557418 3.80697 -0.291082 0.0178257 -0.956532 89 93 94
0.690523 0.557472 3.80179 -0.291956 0.0242548 -0.956124 90 93 95
0.738082 0.549867 3.79462 -0.361447 -0.655926 -0.662659 80 84 85
0.750508 0.550281 3.8004 -0.0402567 0.650872 -0.75812 100 100 96
0.757192 0.549139 3.78842 -0.45014 -0.497273 -0.741682 79 77 71
0.771062 0.542783 3.75041 -0.588346 -0.121031 -0.7995 78 81 82
0.779412 0.53806 3.75137 -0.47272 0.0933059 -0.876259 69 67 60
0.78343 0.536161 3.72019 -0.504523 -0.234977 -0.830809 96 101 99
0.789182 0.536196 3.7245 0.147275 -0.287633 -0.946349 73 70 62
0.792674 0.538097 3.73738 -0.644094 0.20016 -0.738295 96 100 99
0.852128 1.20302 8.65593 0.391254 -0.0303099 -0.919784 64 55 42
1.12735 1.20309 8.85358 0.288418 -0.0702907 -0.954921 38 36 31
1.14976 1.2032 8.86106 0.270713 -0.0678424 -0.960267 39 36 32
1.17212 1.20337 8.86839 0.274413 -0.0666399 -0.9593 39 36 31
1.29177 1.20563 8.97792 0.220153 -0.00562865 -0.975449 31 30 26
1.31859 1.20662 8.99052 0.265565 0.00602494 -0.964074 30 30 26
1.34707 1.20736 9.0071 0.356703 -0.00528383 -0.934203 34 33 27
1.40506 1.21658 9.08006 0.29564 -0.000171036 -0.955299 40 37 29
1.40745 1.20122 8.97039 0.379548 0.00232717 -0.925169 36 34 29
1.45417 1.20802 9.06458 0.369853 0.00161725 -0.929089 32 30 26
1.5292 1.20691 9.14343 0.382323 -0.0202514 -0.923807 33 30 26
1.56941 1.20435 9.14373 -0.0911604 -0.911551 -0.400955 27 26 24
1.56921 1.20503 9.14355 -0.0597099 -0.906115 -0.418796 27 26 24
1.62262 1.20388 9.14709 0.190186 0.0307617 -0.981266 27 27 24
1.63415 1.20159 9.13192 0.0825209 0.0496832 -0.99535 28 27 25
1.65354 1.20117 9.13084 0.0966408 0.0504001 -0.994043 28 27 24
1.66168 1.19717 9.10912 0.0953865 0.0592536 -0.993675 23 24 23
-1.50119 0.745826 3.74348 0.20523 -0.917645 -0.340306 151 153 145
-1.48221 0.744215 3.74524 0.0851135 -0.834639 -0.544182 151 153 145
-1.47437 0.744629 3.73696 0.13528 -0.879761 -0.455764 151 153 145
-1.45119 0.739972 3.72241 0.0658106 -0.81231 -0.579501 152 153 146
-1.45252 0.740887 3.73556 0.180936 -0.858366 -0.480072 151 153 145
-1.45611 0.74438 3.74257 0.506888 -0.712211 -0.485613 152 153 146
-1.4553 0.743241 3.75241 0.035964 -0.775279 -0.630595 151 153 145
-1.43445 0.743178 3.76591 0.32939 -0.848443 -0.414303 151 153 146
-1.43486 0.745346 3.77817 0.13833 -0.883787 -0.446973 152 152 145
-1.42132 0.744474 3.76811 0.632021 -0.77462 -0.0226393 152 152 145
-1.41495 0.742049 3.77796 0.100932 -0.769266 -0.630906 151 151 144
-1.40758 0.744046 3.78871 -0.0544478 -0.597912 -0.79971 151 151 144
-1.39756 0.742568 3.79288 0.551352 -0.831142 -0.0722094 150 152 144
-1.25759 0.729589 3.75525 0.225144 -0.658015 -0.718559 151 151 144
-1.25463 0.727849 3.77138 0.230434 -0.648242 -0.725728 150 150 144
-1.25173 0.732398 3.78202 0.232257 -0.648049 -0.72532 150 150 144
-1.2489 0.730667 3.79823 0.238405 -0.635603 -0.734283 149 149 143
-1.25435 0.731871 3.80212 0.244321 -0.624835 -0.741545 149 149 143
-1.24619 0.735248 3.8091 0.240858 -0.633982 -0.734884 149 149 143
-1.25566 0.736568 3.82517 0.00703382 -0.774235 -0.632859 149 149 143
-1.2389 0.732245 3.81968 0.828577 -0.559032 0.0306994 148 150 144
-1.23217 0.733884 3.83209 0.23101 -0.658313 -0.716421 149 149 141
-1.21989 0.736113 3.83784 0.543952 -0.833355 -0.0981601 150 152 146
-1.34751 0.780575 4.08843 0.849149 -0.194187 -0.491159 148 148 143
-1.34323 0.782352 4.08801 0.857214 -0.203905 -0.472871 148 148 143
-1.32852 0.785883 4.11248 0.347783 -0.584074 -0.73342 147 148 141
-1.32048 0.779657 4.09806 0.85576 -0.267081 -0.443105 148 148 142
-1.17373 0.788195 4.23255 -0.0480683 0.377704 -0.924678 148 148 142
-1.16518 0.784711 4.25323 0.818896 0.136403 -0.557497 144 144 139
-1.151 0.78823 4.25614 0.825306 0.106078 -0.554632 144 142 136
-1.07892 0.831966 4.61671 0.959195 0.238502 -0.151859 141 141 134
-1.05589 0.828123 4.61999 0.958296 0.239245 -0.156302 140 138 132
-1.04084 0.8343 4.64314 0.918009 0.34322 -0.198646 140 139 133
-1.03641 0.836041 4.66637 0.915445 0.347666 -0.202706 141 140 135
-1.02652 0.826431 4.64491 0.916543 0.345651 -0.201183 140 139 133
-1.02673 0.826399 4.64489 0.917089 0.344503 -0.200663 140 139 133
-1.00963 0.832971 4.68527 0.988306 0.0826605 -0.128133 142 141 135
-0.962501 0.875735 5.01596 0.38111 -0.843722 -0.378006 142 141 132
-0.945522 0.871825 5.00879 -0.103945 -0.149125 -0.98334 143 142 134
-0.93783 0.872898 5.01844 -0.147347 -0.0882947 -0.985136 143 142 134
-0.921524 0.872963 5.02485 0.456595 -0.0983281 -0.884224 140 139 131
-0.901117 0.87615 5.03971 0.533217 -0.0503279 -0.84448 141 139 131
-0.896258 0.870701 5.04436 0.550556 -0.0461184 -0.833524 140 139 130
-0.0962288 0.696709 4.28575 0.409058 -0.553176 -0.725719 143 137 126
-0.0807304 0.695139 4.26477 -0.581202 -0.427903 -0.692173 148 143 132
-0.0759687 0.693665 4.27322 -0.561097 -0.344315 -0.75274 148 142 131
-0.0608063 0.689354 4.25576 0.102494 -0.615279 -0.781618 148 142 132
-0.01709 0.688964 4.25705 0.369706 0.322508 -0.871382 148 143 131
0.0677617 0.676645 4.25603 0.164226 0.572336 -0.803406 141 132 116
0.0767097 0.676503 4.26857 -0.422516 -0.269884 -0.865242 140 132 116
0.0845162 0.67655 4.26477 -0.426454 -0.199619 -0.882207 140 132 116
0.103305 0.671836 4.24859 -0.330478 0.250612 -0.909933 147 142 128
0.102748 0.674707 4.25811 -0.295227 0.322114 -0.899491 152 149 137
0.121075 0.675838 4.24964 -0.266221 0.373739 -0.888508 148 143 130
0.145457 0.669976 4.24459 -0.299276 0.325945 -0.896769 147 142 128
0.153474 0.672939 4.25256 -0.301605 0.327008 -0.895601 140 132 116
0.371854 0.593386 3.82874 -0.196256 0.456315 -0.867905 130 134 135
0.385335 0.584571 3.78978 -0.0464804 0.60254 -0.796734 126 126 120
0.39108 0.587008 3.78827 0.263964 0.568916 -0.778882 139 134 122
0.39855 0.586419 3.78406 -0.0459131 0.605815 -0.79428 142 140 132
0.397725 0.582734 3.78737 0.262299 0.570169 -0.778529 137 132 120
0.405398 0.583936 3.79341 -0.050119 0.605134 -0.794544 131 132 129
0.414134 0.581875 3.7775 0.260489 0.567941 -0.780761 138 133 120
0.421592 0.582838 3.80214 0.193559 0.62397 -0.757098 137 131 118
0.435432 0.583173 3.79653 -0.280211 0.348654 -0.894384 138 137 128
0.436958 0.584992 3.80249 -0.160801 0.509823 -0.845118 139 133 122
0.438305 0.584453 3.80683 -0.204886 0.459929 -0.863995 138 130 115
0.619839 0.572428 3.84044 0.194903 -0.14352 -0.970266 107 108 103
0.625995 0.57146 3.83493 -0.32089 0.368195 -0.872618 106 107 102
0.625116 0.572932 3.84445 -0.372377 0.277164 -0.885729 106 108 103
0.650182 0.568264 3.84964 0.117338 0.287303 -0.950625 102 101 97
0.682944 0.564525 3.81347 -0.4531 0.0992572 -0.885917 112 111 108
0.690605 0.557765 3.80062 -0.455917 0.083329 -0.886113 90 94 95
0.697068 0.559508 3.7851 -0.453748 0.0979879 -0.885727 100 103 102
0.704359 0.557729 3.77586 0.190388 0.352567 -0.916214 127 120 103
0.752851 0.552836 3.77427 -0.0763905 0.602514 -0.794444 86 89 90
0.788988 0.541569 3.72442 -0.577852 0.233472 -0.782034 104 107 105
0.796641 0.536716 3.69765 0.77717 0.335003 -0.532709 116 108 92
0.831898 0.542916 3.7853 -0.244235 0.52022 -0.818365 71 68 59
0.86113 0.54359 3.799 -0.466159 -0.622259 -0.62888 95 98 97
0.842209 1.2251 8.65317 0.399013 -0.0291813 -0.916481 81 69 53
0.854568 1.22192 8.64122 0.497226 -0.00285517 -0.867616 81 69 53
0.939268 1.21655 8.71963 0.431999 -0.0298986 -0.901378 57 47 34
0.980332 1.21474 8.72804 0.417237 -0.0413436 -0.907857 62 52 42
1.02065 1.21324 8.73446 0.418156 -0.0377592 -0.90759 59 51 40
1.02271 1.21388 8.73853 0.400836 -0.0391262 -0.915314 59 51 40
1.04634 1.21382 8.74813 0.388896 -0.0336227 -0.920668 59 53 41
1.13582 1.21578 8.814 0.316868 -0.0358781 -0.947791 55 48 36
1.15759 1.21596 8.8203 0.324805 -0.0432109 -0.944793 55 48 37
1.18353 1.2234 8.87277 0.478365 0.0119501 -0.87808 61 52 39
1.27142 1.21738 8.91901 0.278818 -0.0635001 -0.958242 42 38 30
1.29542 1.2167 8.92681 0.223449 -0.0650037 -0.972546 40 38 31
1.31575 1.21611 8.92839 0.25704 -0.0478749 -0.965214 40 37 31
1.35147 1.21701 8.96121 0.38103 -0.0296001 -0.924089 42 39 32
1.38372 1.21521 8.94682 0.373724 -0.00419821 -0.92753 42 39 31
1.46105 1.217 9.03627 0.36616 0.00784384 -0.930519 49 44 34
1.49166 1.22079 9.05461 0.340129 0.0161714 -0.94024 43 39 31
1.54267 1.22438 9.15673 0.33242 0.00165117 -0.94313 36 33 28
1.54192 1.22576 9.10058 -0.123952 -0.906817 -0.402889 43 39 32
1.56935 1.21706 9.1147 -0.104909 -0.912755 -0.394806 36 34 28
1.56871 1.21824 9.11378 -0.0703233 -0.90731 -0.414539 37 35 29
-1.43111 0.749255 3.7661 -0.0591934 -0.561846 -0.825122 152 153 145
-1.41464 0.748683 3.76958 0.69519 -0.718758 0.0098595 151 152 144
-1.40567 0.746072 3.77433 0.685818 -0.727767 0.00299931 151 152 144
-1.3867 0.750227 3.79324 -0.0550576 -0.609239 -0.791073 151 152 145
-1.26793 0.732124 3.76268 0.229413 -0.656559 -0.71854 151 151 144
-1.25606 0.734987 3.75761 0.225878 -0.658818 -0.717592 151 151 145
-1.25463 0.734131 3.76575 0.229321 -0.65199 -0.722718 151 151 145
-1.25317 0.733263 3.77387 0.231218 -0.648976 -0.724823 150 150 144
-1.25031 0.73783 3.78459 0.234674 -0.644561 -0.727646 150 150 145
-1.24755 0.736116 3.80093 0.239604 -0.635348 -0.734114 150 150 144
-1.2489 0.736981 3.79277 0.235092 -0.645216 -0.726931 150 150 144
-1.24045 0.740397 3.79946 0.23699 -0.639948 -0.73096 151 152 147
-1.2455 0.740869 3.81235 -0.0158602 -0.739513 -0.672955 149 148 141
-1.24542 0.74085 3.81229 -0.0153561 -0.740367 -0.672027 149 148 141
-1.228 0.739799 3.81379 0.227303 -0.662284 -0.713943 150 150 144
-1.22643 0.738985 3.82209 0.227212 -0.663927 -0.712444 150 150 143
-1.23463 0.740171 3.83759 0.0130357 -0.788357 -0.615079 149 150 142
-1.229 0.739021 3.83347 0.027919 -0.805495 -0.591944 148 148 141
-1.21761 0.740619 3.82829 0.828044 0.110916 -0.549582 150 151 143
-1.20877 0.736994 3.83055 0.661811 -0.748559 -0.0408221 150 152 147
-1.19661 0.739508 3.82423 0.603525 -0.703854 -0.374629 149 150 143
-1.34562 0.787041 4.08258 0.848678 -0.200959 -0.489246 148 149 144
-1.33893 0.783195 4.08312 0.865557 -0.196816 -0.460515 148 148 143
-1.34132 0.78855 4.08108 0.868263 -0.198445 -0.454685 148 149 144
-1.34119 0.784001 4.08945 0.771989 -0.257879 -0.580974 148 148 143
-1.33852 0.788369 4.07585 0.867666 -0.210466 -0.450399 148 149 144
-1.3377 0.789154 4.08406 0.868636 -0.202029 -0.452389 148 149 143
-1.32139 0.785517 4.0869 0.792044 -0.322343 -0.518422 148 149 143
-1.175 0.793407 4.219 0.827343 0.108816 -0.551056 145 144 137
-1.17821 0.790089 4.21929 0.828096 0.108173 -0.55005 144 144 137
-1.16706 0.795695 4.23715 0.826624 0.107834 -0.552327 145 145 140
-1.15953 0.794272 4.2367 0.824276 0.112937 -0.55481 145 143 137
-1.15954 0.794233 4.23655 0.824244 0.113025 -0.554839 145 143 137
-1.16273 0.790879 4.23686 0.824916 0.1126 -0.553927 145 144 139
-1.16272 0.790921 4.23702 0.82499 0.112374 -0.553862 145 144 139
-1.15523 0.789444 4.23623 0.823913 0.112672 -0.555403 144 143 137
-1.15186 0.796462 4.25648 0.829591 0.0881236 -0.551374 144 143 137
-1.06739 0.824241 4.5515 0.953287 0.259223 -0.155071 141 140 134
-1.08607 0.842808 4.66141 0.948627 0.269959 -0.165012 140 139 132
-1.07622 0.847494 4.66303 0.950212 0.263987 -0.165554 141 139 133
-1.0508 0.844024 4.66481 0.912489 0.354885 -0.20352 142 140 135
-1.10064 0.875915 4.86954 0.616784 -0.528968 -0.582898 145 145 138
-1.09404 0.876828 4.87833 -0.0122269 -0.610567 -0.791871 142 142 135
-0.940495 0.881346 5.01062 -0.15691 -0.136287 -0.978164 145 145 137
-0.926816 0.882701 5.02943 -0.17011 -0.373234 -0.912008 140 140 133
-0.879889 0.878851 5.06127 0.620828 -0.109631 -0.776244 142 140 132
-0.873175 0.881482 5.06508 0.515393 -0.127075 -0.84748 141 139 130
-0.873353 0.881393 5.05467 -0.544112 0.011354 -0.838936 143 141 132
-0.0758396 0.705198 4.29236 -0.525103 0.297428 -0.797373 139 131 118
-0.020097 0.694776 4.25578 -0.384794 -0.398323 -0.832629 140 134 120
0.0879037 0.681503 4.25336 -0.423963 -0.251833 -0.869963 140 132 116
0.0879924 0.683958 4.26062 -0.425755 -0.244151 -0.871277 140 133 116
0.0992361 0.682213 4.26164 -0.294905 0.320876 -0.900038 149 144 131
0.100861 0.687191 4.2786 -0.29739 0.320771 -0.899258 140 133 117
0.138348 0.673125 4.2344 -0.294428 0.329169 -0.897196 148 143 130
0.139358 0.675523 4.24255 -0.291323 0.336863 -0.895352 148 143 130
0.147998 0.675543 4.23981 -0.293443 0.335248 -0.895265 148 143 130
0.149073 0.677947 4.24796 -0.291366 0.340841 -0.893831 148 143 130
0.157656 0.677991 4.24531 -0.299643 0.328312 -0.895782 149 143 130
0.162938 0.675465 4.25828 -0.305129 0.325138 -0.895087 141 132 117
0.170404 0.673245 4.24847 0.403804 0.17367 -0.89821 150 146 134
0.316918 0.590427 3.74314 -0.00178874 -0.455845 -0.890058 134 134 130
0.342947 0.59428 3.79974 -0.216951 0.412702 -0.884652 134 134 131
0.344543 0.593792 3.79737 -0.223745 0.402841 -0.887501 134 134 131
0.347867 0.595107 3.80111 -0.224661 0.403523 -0.886959 134 135 131
0.355159 0.595241 3.79953 -0.218281 0.414067 -0.883687 128 127 122
0.362944 0.596749 3.79973 0.220965 0.245644 -0.94384 145 144 135
0.369411 0.596647 3.8011 0.272894 0.29224 -0.916583 139 135 123
0.363343 0.594293 3.81368 0.429348 0.279344 -0.858852 138 131 117
0.371919 0.596905 3.81329 0.224912 0.256503 -0.940011 148 148 141
0.385341 0.591423 3.79494 -0.0465036 0.601786 -0.797302 133 135 131
0.405399 0.590788 3.79862 -0.0502519 0.604469 -0.795042 133 135 132
0.413759 0.588667 3.78339 0.0159228 0.62617 -0.779524 140 135 124
0.414634 0.587297 3.78998 -0.119696 0.544276 -0.830323 133 134 131
0.426447 0.587855 3.8007 0.184513 0.629348 -0.754901 139 134 122
0.424987 0.588288 3.80299 0.201754 0.616852 -0.760782 139 134 122
0.441549 0.588605 3.80162 -0.224287 0.433544 -0.872775 140 138 129
0.591247 0.575443 3.82272 -0.450039 -0.38989 -0.8034 109 110 106
0.615294 0.580895 3.86313 0.20067 -0.141288 -0.969417 118 119 113
0.630714 0.577058 3.83205 0.0557885 0.383923 -0.921678 111 115 114
0.632474 0.576368 3.82824 0.0943637 0.341643 -0.935081 117 117 111
0.703132 0.563623 3.78238 -0.448061 0.119661 -0.885958 107 107 100
0.767632 0.557428 3.7948 -0.0795873 0.60714 -0.790599 71 78 87
0.773578 0.557784 3.79429 -0.128599 0.659764 -0.740388 87 90 91
0.795821 0.555207 3.77752 0.154715 -0.314591 -0.936534 70 76 84
0.815997 0.552685 3.80015 0.0960935 0.487256 -0.867956 102 102 98
0.854241 0.548104 3.78925 -0.466599 -0.680913 -0.564484 77 74 66
0.946851 1.23126 8.67837 0.431487 -0.0233026 -0.901818 81 68 54
0.969159 1.23086 8.68598 0.408742 -0.0291972 -0.912183 80 67 54
0.987403 1.22926 8.68555 0.389513 -0.0408042 -0.920117 79 66 52
1.05485 1.22953 8.74516 0.402788 0.00874786 -0.915252 71 61 46
1.07095 1.22767 8.74023 0.297608 0.0300008 -0.954217 71 61 47
1.22445 1.22222 8.81006 0.272735 -0.0577904 -0.960352 64 55 41
1.25673 1.23018 8.87135 0.26289 -0.058089 -0.963076 68 59 43
1.27733 1.22945 8.87411 0.285979 -0.0057078 -0.958219 62 53 40
1.30015 1.22948 8.88085 0.276643 0.00335693 -0.960967 58 50 38
1.44155 1.22468 9.02221 0.34784 -0.0079329 -0.93752 57 49 37
1.47396 1.22982 9.04677 0.247953 -0.0449427 -0.967729 47 43 35
1.52178 1.23632 9.09874 0.234465 -0.0455633 -0.971056 51 46 36
1.53991 1.22612 9.09732 -0.13445 -0.907953 -0.396918 44 40 32
1.56802 1.22915 9.08357 -0.0942623 -0.910911 -0.401691 48 44 36
1.64847 1.21919 9.10172 0.303606 -0.05545 -0.951183 34 34 29
-1.42239 0.753357 3.76294 0.551175 -0.656832 -0.514566 152 152 145
-1.40394 0.757071 3.77997 0.698385 -0.715647 0.010386 151 153 145
-1.25907 0.736678 3.74133 0.219255 -0.671849 -0.707493 152 152 146
-1.25754 0.735836 3.74947 0.222524 -0.66532 -0.712624 151 151 146
-1.25648 0.741106 3.75176 0.21806 -0.67858 -0.701412 152 152 147
-1.25485 0.740297 3.75996 0.219044 -0.6774 -0.702245 152 152 146
-1.25327 0.739497 3.76822 0.220245 -0.676021 -0.703198 151 151 146
-1.25174 0.738688 3.77646 0.224245 -0.668321 -0.709268 151 151 145
-1.2446 0.742952 3.77491 0.229187 -0.654443 -0.72054 151 151 145
-1.24321 0.742132 3.78321 0.234274 -0.64341 -0.728793 150 151 145
-1.2432 0.742107 3.78306 0.230377 -0.653183 -0.721303 150 151 145
-1.24189 0.741276 3.79136 0.238312 -0.634687 -0.735106 151 152 147
-1.21003 0.736167 3.77433 0.118947 -0.661105 -0.740805 145 145 139
-1.21026 0.740641 3.78721 0.110922 -0.628629 -0.769755 145 144 139
-1.21357 0.742564 3.8068 0.458373 -0.46409 -0.757967 148 149 143
-1.20373 0.739238 3.79134 0.386487 -0.587596 -0.710886 150 151 144
-1.20525 0.742117 3.80895 -0.120268 -0.426103 -0.896645 145 144 137
-1.20465 0.743852 3.82279 -0.106612 -0.516875 -0.849396 145 144 137
-1.32315 0.790216 4.08002 0.85719 -0.262911 -0.442836 148 149 144
-1.31834 0.791036 4.07877 0.849618 -0.295273 -0.436993 148 149 143
-1.3292 0.795538 4.0997 0.85595 -0.26938 -0.441343 148 148 143
-1.32494 0.797151 4.09972 0.85484 -0.271908 -0.441944 148 148 143
-1.32312 0.791051 4.09973 0.849776 -0.266223 -0.45498 148 148 143
-1.17178 0.796713 4.21876 0.827662 0.105512 -0.55122 144 145 139
-1.17928 0.798224 4.21928 0.828038 0.107825 -0.550207 145 145 139
-1.16385 0.799031 4.23685 0.825413 0.110236 -0.553661 145 145 140
-1.16384 0.799074 4.23702 0.825581 0.10965 -0.553527 145 145 140
-1.15633 0.797613 4.23639 0.824038 0.11162 -0.55543 145 143 137
-1.14661 0.869412 4.74183 0.771197 0.181794 -0.610087 142 142 134
-1.12336 0.864827 4.73857 0.622473 0.307891 -0.719535 142 142 134
-1.06516 0.851973 4.66307 0.911731 0.357283 -0.202721 142 142 134
-1.12818 0.88259 4.82785 0.803236 -0.378896 -0.459619 146 146 139
-1.12152 0.877868 4.83484 0.791987 -0.335387 -0.510168 146 145 140
-1.12077 0.885253 4.86381 0.591836 -0.578832 -0.560967 147 145 140
-1.11071 0.880534 4.86642 -0.0491411 -0.702311 -0.710173 146 145 139
-1.06814 0.883884 4.90411 0.738586 -0.278424 -0.613979 146 146 139
-0.93605 0.889284 5.01623 -0.16444 -0.190634 -0.96779 147 147 140
-0.929386 0.889788 5.02651 0.464852 -0.287884 -0.837279 142 141 134
-0.891057 0.889497 5.04229 -0.22357 -0.695605 -0.682752 143 143 136
-0.87157 0.888861 5.06103 -0.361432 -0.315624 -0.877353 142 142 134
-0.0123771 0.694833 4.25238 -0.38581 -0.398504 -0.832073 140 134 120
-0.00954836 0.696366 4.25555 -0.386736 -0.398026 -0.831872 141 135 121
0.0831006 0.691464 4.26085 -0.424843 -0.244222 -0.871702 140 133 117
0.09091 0.691545 4.25734 -0.426466 -0.239325 -0.872267 140 132 117
0.112269 0.691733 4.27105 -0.432123 -0.248796 -0.866816 141 133 118
0.136362 0.685586 4.25544 -0.271118 0.370029 -0.888579 156 152 140
0.145002 0.685603 4.2527 -0.272573 0.369642 -0.888295 155 152 140
0.158581 0.680455 4.25367 -0.297948 0.333136 -0.894565 149 144 131
0.167189 0.680482 4.2509 -0.301382 0.329811 -0.894647 149 143 131
0.168164 0.682954 4.25924 -0.302776 0.329479 -0.894299 150 144 132
0.313731 0.593793 3.73805 -0.305148 -0.598193 -0.740979 126 130 131
0.320369 0.595474 3.73373 0.0036234 -0.35691 -0.934132 135 136 133
0.346695 0.598436 3.79394 -0.235512 0.382292 -0.893525 129 128 122
0.347915 0.598055 3.79212 -0.23197 0.389152 -0.891488 129 128 123
0.351188 0.59937 3.79592 -0.227663 0.396302 -0.889446 129 128 123
0.35851 0.599453 3.79434 -0.216325 0.414742 -0.883851 129 129 124
0.359343 0.601571 3.80179 -0.225088 0.402231 -0.887438 130 129 125
0.376056 0.599847 3.80318 0.293284 0.23653 -0.926303 141 137 125
0.390121 0.596824 3.79337 -0.0621274 0.589744 -0.805197 135 137 134
0.39488 0.597183 3.79833 0.475438 0.284674 -0.832418 141 137 126
0.400451 0.597483 3.80126 -0.42162 -0.126785 -0.897865 141 137 124
0.408056 0.597174 3.79678 0.0163191 0.626598 -0.779172 141 137 127
0.409344 0.59569 3.80286 -0.12109 0.542 -0.831609 144 143 135
0.414725 0.593969 3.79523 -0.113768 0.549149 -0.827944 144 143 135
0.420475 0.597403 3.80704 -0.0506837 0.605666 -0.794103 141 136 123
0.428092 0.594153 3.80391 -0.0183681 0.630913 -0.775636 140 136 125
0.427991 0.594183 3.80404 -0.0421702 0.613618 -0.788476 140 136 125
0.433746 0.591574 3.80326 0.106679 0.545357 -0.831388 139 136 124
0.438496 0.595989 3.81008 -0.00896887 0.635604 -0.771963 141 135 121
0.448724 0.592728 3.7957 0.0828989 0.55974 -0.824512 140 136 125
0.447458 0.591763 3.80542 -0.16967 0.501137 -0.848572 140 139 130
0.502413 0.5844 3.79364 0.229368 0.584456 -0.778333 137 132 121
0.514368 0.585072 3.7958 0.263397 0.55154 -0.79147 136 131 120
0.782453 0.563839 3.79205 -0.102651 0.630008 -0.769775 96 94 88
0.793268 0.559602 3.7734 0.134971 -0.338554 -0.931217 99 101 100
0.801003 0.556756 3.75623 -0.489815 -0.389189 -0.780136 100 102 100
0.814871 0.559256 3.79734 -0.522463 -0.0884659 -0.84806 108 108 103
0.860616 0.553454 3.80032 -0.494187 -0.430701 -0.755167 96 91 81
1.01118 1.22944 8.69597 0.387408 -0.0356459 -0.921219 78 66 51
1.03393 1.22916 8.70405 0.380791 -0.0396325 -0.923811 76 66 50
1.12822 1.23111 8.77993 0.322862 0.0517011 -0.945033 69 60 43
1.13048 1.23246 8.78463 0.201455 0.0922827 -0.975141 70 60 43
1.18618 1.23428 8.75576 0.248441 0.0191499 -0.968458 77 64 47
1.19204 1.2357 8.76677 0.280939 0.0145501 -0.959615 77 64 47
1.3089 1.23156 8.89886 0.260639 0.00748582 -0.965407 57 50 38
1.5269 1.23415 9.04559 0.307331 -0.0354035 -0.950944 53 48 37
1.55442 1.23823 9.03042 0.173873 -0.0355967 -0.984125 58 52 40
1.59425 1.23294 9.06717 -0.233573 -0.79579 -0.558714 49 46 37
1.60886 1.23457 9.04709 0.304536 -0.0496371 -0.951207 53 50 38
1.63642 1.23535 9.06046 0.217097 0.0167568 -0.976006 49 47 36
1.67077 1.22566 9.0848 0.24034 -0.0681069 -0.968297 39 39 33
-1.41641 0.758696 3.76315 -0.0777754 -0.485002 -0.871048 151 152 145
-1.39613 0.756672 3.75537 -0.078592 -0.486791 -0.869976 151 152 145
-1.24407 0.744287 3.7463 -0.0327522 -0.694015 -0.719215 153 153 146
-1.24758 0.744548 3.75817 0.215111 -0.684264 -0.696785 152 152 147
-1.24605 0.743759 3.7665 0.219269 -0.676342 -0.703195 151 151 146
-1.23543 0.746804 3.77206 -0.00135192 -0.759735 -0.650232 151 151 145
-1.23492 0.746653 3.77142 -0.0441779 -0.678793 -0.732999 151 151 145
-1.23472 0.745512 3.78978 0.233069 -0.645901 -0.726974 150 151 144
-1.23625 0.746414 3.78182 0.227525 -0.658242 -0.7176 150 151 145
-1.2088 0.742009 3.76816 -0.0232469 -0.626027 -0.779455 151 151 145
-1.21304 0.742523 3.78024 0.280957 -0.628078 -0.725659 150 151 145
-1.19654 0.748008 3.80162 0.304662 -0.581671 -0.754215 151 151 145
-1.19622 0.747924 3.80266 0.299464 -0.592551 -0.7478 151 151 145
-1.20336 0.749476 3.81692 -0.106156 -0.519939 -0.847581 151 151 145
-1.33577 0.795678 4.07794 0.868489 -0.203384 -0.452065 150 151 146
-1.17647 0.750165 3.82459 0.353477 -0.749804 -0.559328 150 150 143
-1.3207 0.796617 4.07392 0.856736 -0.26516 -0.442374 149 152 146
-1.16924 0.750877 3.83526 -0.106636 -0.832948 -0.542979 146 145 138
-1.32067 0.798773 4.09985 0.854408 -0.275158 -0.440766 148 149 143
-1.15854 0.747143 3.84257 0.760107 -0.356643 -0.543179 149 149 142
-1.17604 0.801552 4.21905 0.828325 0.10448 -0.550419 145 145 140
-1.16844 0.80135 4.22484 0.824861 0.1139 -0.553743 146 146 140
-1.17276 0.806155 4.22513 0.825764 0.112129 -0.552757 145 145 140
-1.16525 0.804688 4.22454 0.825147 0.11069 -0.553968 146 146 141
-1.16063 0.802421 4.2367 0.824652 0.110865 -0.554669 145 145 140
-1.1571 0.80702 4.24255 0.829914 0.087851 -0.550931 145 146 141
-1.15273 0.803394 4.24848 0.827597 0.0955276 -0.553135 145 145 140
-1.1525 0.806252 4.26267 0.831501 0.0792676 -0.54984 147 148 142
-1.05927 0.798975 4.25544 0.141588 -0.933573 -0.329234 144 145 138
-1.15222 0.873776 4.73943 0.799142 0.152308 -0.581527 142 142 135
-1.14875 0.878075 4.74053 0.814626 0.149193 -0.560469 142 142 136
-1.14315 0.876838 4.75619 0.777111 0.231429 -0.585269 142 142 135
-1.14892 0.881493 4.757 0.792917 0.206475 -0.573281 142 142 136
-1.14013 0.881912 4.75821 0.776993 0.243923 -0.58033 142 142 136
-1.13392 0.880225 4.77244 0.778904 0.239496 -0.579612 142 142 135
-1.12498 0.881457 4.78645 0.799709 0.183527 -0.57165 143 143 136
-1.12295 0.883816 4.82764 0.803518 -0.376722 -0.460913 146 146 140
-1.11724 0.88799 4.84249 0.803298 -0.375915 -0.461954 147 146 141
-1.11086 0.892356 4.85824 0.707345 -0.254259 -0.659557 144 143 138
-1.11093 0.892321 4.85783 0.708264 -0.246747 -0.661421 144 143 138
-1.1036 0.887506 4.86191 0.705856 -0.257504 -0.659893 143 143 137
-1.06316 0.889829 4.89875 0.331713 -0.426956 -0.841234 148 148 141
-1.05628 0.890957 4.90372 0.252854 -0.494151 -0.831793 147 146 140
-0.973264 0.899437 5.01292 -0.158701 -0.414446 -0.89613 148 148 142
-0.96623 0.898641 5.01268 0.468978 -0.155765 -0.869366 148 147 142
-0.956098 0.898288 5.00901 -0.166102 -0.318767 -0.933165 148 148 143
-0.948912 0.898037 5.01163 0.467761 -0.185334 -0.864205 149 149 143
-0.938601 0.898215 5.0107 -0.168612 -0.333445 -0.927569 148 148 143
-0.929378 0.899684 5.02046 -0.226798 -0.516117 -0.825946 146 146 139
-0.905099 0.890779 4.97676 -0.165877 -0.362841 -0.916968 146 146 139
-0.894801 0.891079 4.9765 0.605698 -0.313686 -0.731253 146 147 139
-0.880885 0.892079 5.03285 -0.117954 -0.813874 -0.568943 143 143 135
-0.332541 0.879775 5.28997 -0.471073 -0.252784 -0.845098 143 133 118
-0.320918 0.879501 5.28216 -0.474637 -0.19528 -0.858246 143 134 119
-0.0721825 0.712266 4.29131 -0.605801 0.0899161 -0.790519 141 133 120
-0.309365 0.875589 5.26427 -0.473105 -0.188021 -0.860709 144 134 119
-0.301668 0.880125 5.27228 -0.477046 -0.181158 -0.860005 144 135 120
0.0909802 0.694048 4.26465 -0.427535 -0.238615 -0.871938 140 132 117
0.098965 0.694076 4.26073 -0.42891 -0.231203 -0.873259 150 145 132
0.0990936 0.694036 4.26059 -0.428586 -0.239349 -0.871221 150 145 132
0.115338 0.696706 4.26 -0.431584 -0.24757 -0.867435 150 145 133
0.146116 0.688028 4.26094 -0.270529 0.374405 -0.886924 155 152 140
0.162731 0.685483 4.24644 -0.289205 0.344938 -0.892961 151 145 133
0.155588 0.690579 4.26666 -0.27632 0.36925 -0.8873 156 152 141
0.172413 0.687937 4.25183 -0.295074 0.340797 -0.89263 150 145 133
0.208482 0.672311 4.15563 0.563605 0.226057 -0.794511 141 133 119
0.210056 0.6692 4.14082 0.635151 -0.134121 -0.760654 140 133 118
0.295916 0.603942 3.74417 0.0430073 0.647129 -0.761166 140 135 124
0.303368 0.601128 3.74203 0.185429 -0.119873 -0.975319 135 137 134
0.309115 0.605612 3.76758 0.0055452 -0.169405 -0.985531 136 137 135
0.318578 0.607178 3.77646 0.200587 0.423934 -0.883202 141 135 124
0.350194 0.602648 3.78846 -0.23802 0.378215 -0.894595 130 130 125
0.352186 0.604349 3.79384 -0.236281 0.382595 -0.893192 131 130 126
0.351177 0.60468 3.79534 -0.241278 0.375132 -0.89502 131 130 126
0.354881 0.605864 3.79845 -0.235616 0.385033 -0.89232 142 137 126
0.359047 0.6069 3.80157 -0.233821 0.388179 -0.891428 143 138 127
0.370452 0.602856 3.80366 0.0182597 0.521196 -0.853242 130 130 126
0.377409 0.605953 3.8053 0.223 0.381007 -0.897276 143 139 127
0.381279 0.606795 3.81061 -0.416504 -0.288454 -0.862159 131 132 127
0.385543 0.607571 3.81077 0.00902367 0.532008 -0.846691 131 132 128
0.391245 0.604576 3.81019 0.2195 0.384001 -0.896863 142 139 127
0.394762 0.604926 3.814 -0.0255058 0.575991 -0.817058 128 129 126
0.402778 0.603981 3.79988 0.0159824 0.627538 -0.778422 143 139 129
0.41758 0.599802 3.79668 -0.165353 0.494974 -0.853029 145 144 136
0.433595 0.599244 3.80131 -0.0499955 0.606353 -0.793622 141 138 127
0.433595 0.599244 3.80131 -0.0499955 0.606353 -0.793622 144 143 136
0.43688 0.59739 3.80435 -0.0158877 0.632528 -0.774374 141 137 126
0.448568 0.599675 3.80062 -0.107997 0.559825 -0.821543 143 143 134
0.456787 0.59633 3.79613 0.0793549 0.559517 -0.825011 142 144 138
0.768396 0.565305 3.7688 -0.502925 -0.0639859 -0.861958 110 108 102
0.790178 0.565381 3.77895 -0.152953 0.481965 -0.862737 104 106 105
0.797203 0.566031 3.78213 -0.440765 -0.101776 -0.891834 121 120 114
0.812217 0.564076 3.79579 0.158196 -0.194287 -0.968105 112 112 107
0.913679 1.24583 8.62852 0.371606 -0.0505029 -0.927016 96 81 64
0.934954 1.24541 8.63453 0.362912 -0.0518165 -0.930381 95 81 65
0.977646 1.24446 8.64626 0.369666 -0.0486376 -0.927891 93 80 62
1.02227 1.25111 8.69806 0.380607 -0.0604893 -0.922756 93 79 63
1.04616 1.25131 8.70826 0.363503 -0.0348933 -0.93094 92 81 63
1.05539 1.24031 8.69255 0.209709 -0.00861405 -0.977726 88 76 58
1.0809 1.24177 8.71094 0.180206 -0.00491054 -0.983617 87 75 58
1.26331 1.24297 8.82959 0.276442 0.00429744 -0.961021 77 64 46
-1.24506 0.749956 3.74961 -0.10626 -0.42193 -0.90038 153 153 147
-1.2411 0.751163 3.75258 -0.107254 -0.423413 -0.899565 153 153 147
-1.2224 0.749263 3.77534 -0.100678 -0.501552 -0.859249 151 152 146
-1.2224 0.749263 3.77534 -0.100678 -0.501552 -0.859249 151 152 146
-1.22063 0.750235 3.78046 -0.106545 -0.475299 -0.873349 151 152 146
-1.19674 0.754242 3.79699 -0.113601 -0.47259 -0.87393 152 152 146
-1.19876 0.754206 3.80726 -0.0943828 -0.564739 -0.819854 152 152 146
-1.18371 0.749274 3.80673 0.234556 -0.621695 -0.747315 151 151 145
-1.32245 0.801321 4.06747 0.856755 -0.266603 -0.441468 150 151 145
-1.15513 0.755735 3.85147 0.837791 -0.255189 -0.482685 149 149 142
-1.1591 0.75446 3.85251 0.837058 -0.249535 -0.486894 149 149 142
-1.16479 0.814949 4.24647 0.853541 -0.107318 -0.509854 148 149 144
-1.1541 0.816058 4.26891 0.806336 0.16733 -0.567294 148 149 143
-1.11317 0.817182 4.28108 -0.186572 -0.53365 -0.824869 147 147 140
-1.04737 0.803096 4.2498 0.141352 -0.933632 -0.329166 145 146 139
-1.05256 0.809348 4.29504 0.720835 -0.535422 -0.440136 145 145 139
-1.13012 0.88733 4.78691 0.805623 0.169702 -0.567604 143 143 136
-1.12124 0.888618 4.80065 0.798886 0.186237 -0.571924 144 143 137
-1.12608 0.894223 4.80162 0.819368 0.122226 -0.560087 144 144 137
-1.11867 0.893946 4.83527 0.805386 -0.370919 -0.462355 147 147 141
-1.12623 0.899637 4.83645 0.807598 -0.366937 -0.461674 147 147 141
-1.11433 0.896158 4.84315 0.805176 -0.370382 -0.463152 147 147 142
-1.11173 0.897393 4.84356 0.70671 -0.258591 -0.658553 148 147 142
-1.10672 0.893203 4.85633 0.70624 -0.257494 -0.659486 144 143 138
-1.0965 0.896522 4.86051 0.706258 -0.24928 -0.662615 145 144 138
-1.10066 0.895616 4.86215 0.706525 -0.252292 -0.66119 144 144 138
-1.10481 0.894734 4.86383 0.706928 -0.254008 -0.660101 144 143 138
-1.09236 0.897441 4.85886 0.705971 -0.246693 -0.663888 149 148 143
-1.06378 0.897817 4.90236 0.576439 -0.312762 -0.754916 148 148 141
-1.06868 0.898209 4.90469 0.619388 -0.265997 -0.73865 148 148 141
-1.05877 0.897514 4.90039 0.573048 -0.308365 -0.759294 149 148 142
-1.05511 0.898255 4.89693 0.686569 -0.217497 -0.693771 149 148 142
-1.05394 0.897087 4.89781 0.60585 -0.284034 -0.743149 148 148 142
-1.0508 0.899371 4.89551 0.697466 -0.212602 -0.684354 149 148 142
-1.04676 0.90044 4.89349 0.703117 -0.220196 -0.676122 145 144 139
-1.01396 0.915093 5.02234 0.658098 -0.424335 -0.62197 149 149 143
-0.978587 0.909652 5.01962 0.651836 -0.425413 -0.6278 150 150 145
-0.967843 0.910665 5.02271 0.284608 -0.517884 -0.806718 150 150 145
-0.969108 0.906458 5.01354 -0.159713 -0.423323 -0.89179 149 149 144
-0.961333 0.908022 5.01326 0.46007 -0.381668 -0.801664 150 150 144
-0.942197 0.904744 5.00463 -0.160697 -0.436732 -0.885123 150 150 144
-0.93333 0.905265 5.00941 0.204539 -0.471564 -0.857783 150 150 143
-0.926981 0.903489 5.00662 0.137908 -0.526372 -0.838995 147 148 141
-0.893147 0.906894 5.03217 -0.285026 -0.589179 -0.756061 148 149 142
-0.882521 0.899658 5.03261 0.423336 -0.485321 -0.765016 145 145 137
-0.861206 0.901485 5.03202 0.462712 -0.469241 -0.752137 146 146 138
-0.350632 0.893986 5.30863 -0.470511 -0.250421 -0.846114 141 134 120
-0.34012 0.894096 5.30269 -0.472067 -0.248893 -0.845698 145 137 123
-0.329511 0.894243 5.29684 -0.472629 -0.256618 -0.843071 144 136 123
-0.305363 0.886074 5.2596 -0.475365 -0.188919 -0.859266 145 136 122
-0.302067 0.883942 5.28409 -0.477657 -0.177441 -0.860441 145 134 121
-0.302042 0.883896 5.28403 -0.47816 -0.174396 -0.860784 145 134 121
0.0943714 0.698963 4.25334 -0.427131 -0.234455 -0.873264 151 146 133
0.102194 0.699013 4.2497 -0.427737 -0.239753 -0.871527 150 146 133
0.102102 0.69905 4.24981 -0.428123 -0.237078 -0.872069 150 146 133
0.102252 0.701551 4.25701 -0.428834 -0.242499 -0.870227 152 148 136
0.102152 0.701591 4.25714 -0.429175 -0.237836 -0.871345 152 148 136
0.102445 0.701524 4.25673 -0.429225 -0.236632 -0.871648 152 148 136
0.168362 0.692789 4.247 -0.278938 0.363235 -0.888962 156 152 141
0.203724 0.678568 4.15908 0.0974461 0.490617 -0.86591 135 134 125
0.211843 0.678404 4.15908 0.0966038 0.490105 -0.866294 132 131 123
0.220784 0.675602 4.14671 0.550331 0.248954 -0.796968 141 134 119
0.300932 0.606067 3.74143 0.045179 0.643397 -0.764198 141 136 125
0.306818 0.612904 3.76489 0.011904 -0.304657 -0.952388 131 131 127
0.309311 0.607239 3.74808 0.20545 0.00459149 -0.978657 137 139 136
0.31216 0.612715 3.7639 -0.0199531 -0.887727 -0.459938 142 137 126
0.315875 0.612076 3.77542 0.00474492 -0.154266 -0.988018 137 138 136
0.334421 0.614182 3.79863 0.0169123 0.638261 -0.769634 143 139 127
0.340558 0.614386 3.80108 0.0129032 0.632405 -0.774531 144 140 128
0.34911 0.610613 3.79718 -0.247691 0.360962 -0.899086 143 139 127
0.353817 0.611489 3.7989 -0.246207 0.367135 -0.896991 144 140 128
0.370107 0.609495 3.80813 0.22875 0.372014 -0.899599 144 140 129
0.369489 0.607641 3.79841 0.228538 0.371563 -0.89984 143 139 129
0.379502 0.611539 3.80915 -0.416441 -0.299902 -0.858275 144 140 129
0.38395 0.612265 3.80904 0.000477508 0.500438 -0.865772 144 141 129
0.391625 0.611037 3.81379 -0.42369 -0.157527 -0.892005 144 140 127
0.397489 0.611295 3.81175 0.028443 0.615522 -0.787606 144 141 129
0.420108 0.606729 3.82152 -0.427851 -0.108966 -0.897257 142 138 124
0.431893 0.609231 3.81492 0.00791854 0.629128 -0.777261 149 150 144
0.441188 0.602848 3.80342 -0.0498908 0.606488 -0.793526 142 139 127
0.453017 0.605059 3.79945 -0.12132 0.545735 -0.829129 147 149 143
0.761824 0.567579 3.76721 -0.219819 0.681464 -0.698059 105 104 99
0.783116 0.567066 3.77465 -0.233319 0.628633 -0.741878 98 102 103
0.802892 0.56734 3.78817 -0.482064 -0.427987 -0.764488 120 120 114
0.808911 0.568285 3.79073 -0.176315 -0.423914 -0.888375 120 120 114
0.965267 1.25355 8.65574 0.396772 -0.0502447 -0.916541 98 84 66
1.04889 1.26074 8.6969 0.330386 0.0400772 -0.942995 100 87 69
1.11589 1.25075 8.70816 0.337337 -0.0293002 -0.940928 94 81 62
1.18382 1.26303 8.80489 0.293489 -0.0348663 -0.955326 94 79 59
1.21435 1.25639 8.79056 0.205793 -0.00299984 -0.978591 89 76 57
1.25233 1.26342 8.82686 0.277137 -0.00983119 -0.96078 91 77 57
1.27585 1.26368 8.83509 0.276059 -0.00345232 -0.961134 91 77 58
-1.24488 0.755848 3.7706 -0.0669515 -0.619129 -0.78243 153 153 147
-1.24504 0.756464 3.77157 -0.0844723 -0.5625 -0.822471 153 153 147
-1.24768 0.761981 3.77533 -0.10884 -0.441375 -0.890697 154 154 148
-1.2104 0.75655 3.7716 -0.109273 -0.465361 -0.87835 152 152 146
-1.20673 0.75552 3.78899 0.410675 -0.575443 -0.707257 150 150 144
-1.19274 0.755481 3.8 -0.114441 -0.475461 -0.872262 152 152 146
-1.18867 0.75671 3.80286 -0.116936 -0.467246 -0.87636 151 151 145
-1.32455 0.80457 4.03528 0.0619258 -0.541428 -0.838464 150 150 145
-1.3197 0.808652 4.08129 0.853811 -0.279602 -0.439124 150 152 146
-1.16111 0.758968 3.84639 0.837946 -0.255593 -0.482202 150 150 143
-1.15926 0.819451 4.2632 0.817308 0.134963 -0.560173 148 149 144
-1.12424 0.824634 4.27809 0.716483 0.342021 -0.608009 148 148 141
-1.08023 0.815678 4.25026 0.786619 0.19102 -0.587147 148 149 142
-1.05185 0.810244 4.22369 0.689041 -0.101595 -0.717567 147 147 141
-1.04673 0.808861 4.23755 0.0538683 -0.882483 -0.467249 147 148 142
-1.04571 0.809624 4.25878 0.665871 -0.0207528 -0.745778 150 148 140
-1.05216 0.814928 4.2872 0.721239 -0.535104 -0.43986 146 147 141
-1.04715 0.816684 4.29507 0.721251 -0.534058 -0.441112 147 148 142
-1.14299 0.891069 4.75836 0.766013 0.266954 -0.584774 144 143 138
-1.14902 0.895351 4.75822 0.811784 0.15642 -0.562619 147 147 143
-1.13788 0.8995 4.78061 0.758691 0.279632 -0.588382 148 148 142
-1.13149 0.896692 4.78738 0.755259 0.286315 -0.589582 144 144 138
-1.12216 0.899496 4.80866 0.823426 0.103731 -0.557862 148 148 142
-1.12102 0.900895 4.83622 0.807243 -0.366878 -0.462342 147 147 141
-1.1158 0.902123 4.83604 0.80471 -0.372819 -0.462004 147 147 142
-1.11483 0.903074 4.83799 0.706844 -0.258369 -0.658496 147 147 142
-1.0978 0.903697 4.86218 0.7064 -0.251343 -0.661684 149 148 143
-1.10194 0.902804 4.86381 0.706539 -0.255346 -0.660001 149 148 143
-1.09178 0.906104 4.86776 0.70646 -0.24621 -0.663548 149 149 143
-1.09367 0.904604 4.86054 0.70615 -0.248694 -0.662951 149 149 143
-1.08765 0.907023 4.86608 0.706072 -0.244207 -0.664699 149 149 143
-1.06813 0.907219 4.88065 0.704887 -0.233232 -0.669879 145 145 139
-1.05654 0.905426 4.89919 0.701268 -0.219684 -0.678205 146 145 139
-0.987077 0.917442 5.01885 0.645288 -0.449941 -0.617379 151 152 146
-0.974912 0.915216 5.0127 0.617434 -0.508729 -0.599976 150 151 146
-0.98103 0.916498 5.0155 0.643039 -0.453166 -0.617366 151 152 146
-0.933836 0.913958 5.01359 0.558909 -0.450392 -0.696253 152 152 145
-0.927574 0.911888 5.00937 0.535073 -0.46468 -0.705527 151 152 145
-0.921322 0.909868 5.00538 0.535002 -0.466648 -0.704282 149 149 142
-0.92078 0.910729 5.00984 0.553729 -0.452505 -0.699015 151 152 144
-0.91513 0.907745 5.0009 0.527671 -0.458081 -0.71535 148 149 142
-0.912025 0.906276 5.00132 0.326631 -0.511536 -0.79476 148 148 142
-0.886513 0.904986 4.98849 0.649673 -0.376718 -0.66031 148 148 142
-0.900502 0.908672 5.02708 0.367596 -0.577678 -0.728808 146 147 140
-0.884869 0.90523 4.98771 0.444084 -0.542443 -0.713124 148 148 142
-0.876976 0.906141 5.03081 -0.385422 -0.663983 -0.640762 148 148 141
-0.863319 0.907533 5.02361 -0.456854 -0.569802 -0.683088 149 149 142
-0.368853 0.908337 5.3274 -0.470326 -0.249397 -0.846519 141 135 123
-0.358313 0.908443 5.32153 -0.471431 -0.247573 -0.84644 142 136 124
-0.346486 0.904399 5.30324 -0.471434 -0.24996 -0.845736 146 138 126
-0.307563 0.890406 5.27302 -0.476383 -0.178306 -0.860968 145 136 122
-0.297287 0.890546 5.26775 -0.476493 -0.179167 -0.860729 145 136 123
-0.297753 0.894396 5.27965 -0.478682 -0.181088 -0.85911 145 136 122
0.0978548 0.706374 4.24937 -0.427432 -0.235094 -0.872945 153 150 138
0.105576 0.706461 4.24584 -0.428406 -0.23596 -0.872234 153 150 139
0.105369 0.706507 4.2461 -0.428627 -0.236476 -0.871985 153 150 139
0.105442 0.706466 4.24598 -0.428457 -0.240377 -0.871001 153 150 139
0.105418 0.709077 4.25342 -0.429688 -0.237285 -0.871243 153 150 139
0.105628 0.70903 4.25315 -0.429574 -0.23969 -0.870641 153 150 139
0.118406 0.701637 4.24902 -0.430679 -0.246171 -0.868283 152 148 137
0.193363 0.685243 4.16115 0.0940542 0.495862 -0.863293 143 139 127
0.198182 0.68706 4.16481 0.0570733 0.543031 -0.837771 141 136 123
0.207769 0.684587 4.16214 0.0863881 0.465251 -0.880953 138 137 128
0.210967 0.683671 4.1578 0.1313 0.43712 -0.889768 136 135 126
0.299572 0.615254 3.74564 0.0324687 -0.279239 -0.959672 132 132 129
0.30939 0.617564 3.7626 0.057009 -0.848304 -0.526431 143 138 127
0.30929 0.615568 3.76641 0.00407892 -0.13494 -0.990845 132 132 128
0.315155 0.615602 3.76663 0.0157258 -0.0359711 -0.999229 132 132 128
0.326442 0.621516 3.79577 0.10975 -0.507113 -0.854863 129 130 127
0.337702 0.61932 3.79986 0.225175 -0.064179 -0.972202 134 134 130
0.357593 0.617226 3.80974 0.481761 -0.551799 -0.680753 145 140 129
0.372218 0.613001 3.80128 0.231138 0.366433 -0.901278 145 141 130
0.372196 0.613008 3.80132 0.229441 0.369597 -0.90042 145 141 130
0.381648 0.61782 3.80628 0.0352752 0.609759 -0.791801 146 142 131
0.390876 0.618535 3.81641 -0.15097 -0.312437 -0.937865 146 141 128
0.424265 0.612695 3.81769 0.00946045 0.628392 -0.77784 148 147 139
