ply
format ascii 1.0
element vertex 755
property float x
property float y
property float z
property float nx
property float ny
property float nz
property uchar diffuse_red
property uchar diffuse_green
property uchar diffuse_blue
end_header
-0.164908 0.326328 2.85093 0.433883 -0.858678 -0.272795 18 37 56
-0.165358 0.329242 2.87359 0.408139 -0.867712 -0.283722 18 37 57
-0.16029 0.328044 2.87625 0.990422 -0.067946 -0.120197 18 37 57
-0.16195 0.329698 2.89436 0.927295 0.323461 -0.188409 18 36 57
-0.164719 0.331891 2.89583 0.428196 0.201459 -0.880944 18 37 57
-0.1529 0.333853 2.94318 -0.0676233 -0.462492 -0.884041 18 37 58
-0.140429 0.330085 2.92936 -0.0617997 -0.480458 -0.874838 19 37 57
-0.132339 0.331685 2.94257 -0.063131 -0.494863 -0.866675 18 36 56
-0.130816 0.329814 2.94712 -0.0731097 -0.457567 -0.886165 19 37 58
-0.121162 0.32934 2.94398 -0.0740517 -0.459618 -0.885024 18 37 58
-0.118905 0.329813 2.94612 -0.0747453 -0.461183 -0.884151 18 37 58
-0.116644 0.330287 2.94827 -0.0754684 -0.462644 -0.883326 18 37 58
-0.0994835 0.327713 2.94602 -0.0760109 -0.443537 -0.893027 19 38 58
-0.0703932 0.32827 2.96068 -0.0887695 -0.456999 -0.885027 18 37 58
-0.0661617 0.327051 2.95399 -0.0812362 -0.483132 -0.871771 17 36 57
0.197756 0.31836 3.08041 0.946702 0.138926 -0.29061 16 34 53
0.208194 0.320026 3.10569 0.696577 0.59651 -0.398693 16 34 53
0.213665 0.318672 3.1129 0.689358 0.602042 -0.402903 16 33 53
0.222853 0.31706 3.11675 0.662 0.625807 -0.412458 16 33 52
0.23432 0.317122 3.13116 0.530076 0.716131 -0.454066 16 34 53
0.238268 0.321646 3.14788 0.496561 0.732628 -0.465492 16 34 54
0.244644 0.319092 3.14776 0.455003 0.750941 -0.478602 16 33 53
0.251052 0.32067 3.15168 0.196174 0.746055 -0.636331 16 33 53
0.259714 0.316845 3.14758 0.494229 0.713986 -0.495946 16 34 54
0.270801 0.318491 3.13979 0.66778 0.613844 -0.421028 16 34 53
0.277057 0.316236 3.12918 0.721322 0.456809 -0.520596 16 33 53
0.288358 0.316725 3.13069 -0.243145 -0.26456 -0.933214 15 33 52
0.286494 0.317822 3.13639 0.68268 0.582086 -0.441729 16 33 52
0.269251 0.324352 3.22978 0.473849 0.732457 -0.48885 15 33 52
0.278145 0.324309 3.23426 0.44177 0.726315 -0.526598 16 33 53
0.279739 0.324537 3.24595 0.417988 0.763581 -0.492168 16 33 53
0.281201 0.324743 3.24365 0.418151 0.763072 -0.492819 16 33 53
0.285373 0.32494 3.25297 0.412666 0.765389 -0.493848 16 33 52
0.301262 0.321813 3.25801 0.462574 0.743545 -0.482872 16 34 53
0.328023 0.32406 3.26533 0.724313 0.546376 -0.420527 16 33 52
0.326642 0.326123 3.28865 0.777232 0.480973 -0.40568 16 33 52
0.336963 0.32225 3.27715 0.610741 0.435688 -0.661189 15 33 51
0.602103 0.66754 8.30444 0.469158 -0.282622 -0.836669 20 40 61
0.596932 0.671214 8.32445 0.470443 -0.284506 -0.835308 21 41 62
0.621043 0.666586 8.30895 0.489675 -0.278576 -0.826204 20 39 60
0.627095 0.667558 8.31951 0.467394 -0.283709 -0.837288 21 41 62
0.650618 0.667437 8.33182 0.466613 -0.279813 -0.839034 21 41 61
1.18195 0.669193 8.99541 0.452822 0.117325 -0.883848 21 42 63
1.20787 0.668897 9.00689 0.455005 0.0927375 -0.885647 22 43 64
1.25942 0.672745 9.06122 0.420062 0.114784 -0.900207 22 44 65
1.46952 0.661078 9.17316 0.422708 0.029123 -0.905798 24 47 67
-0.366344 0.34817 2.90761 0.372094 0.687917 -0.62315 18 37 56
-0.372277 0.352943 2.95141 0.407722 -0.87395 -0.264526 19 38 57
-0.359247 0.351225 2.93003 0.386234 0.517448 -0.763591 19 37 56
-0.346248 0.350938 2.94359 0.49126 -0.840302 -0.229251 18 37 56
-0.348828 0.353216 2.96549 0.471185 -0.849064 -0.238905 19 37 56
-0.175538 0.33234 2.86565 0.499647 0.170972 -0.849189 17 36 55
-0.174159 0.332865 2.86884 0.306008 0.0892993 -0.947832 17 36 55
-0.169389 0.333582 2.87437 0.253261 0.0722556 -0.964696 18 37 56
-0.160484 0.333036 2.87271 0.0696125 0.0629382 -0.995587 18 36 56
-0.16515 0.336876 2.90362 0.465545 0.687386 -0.557466 18 36 56
-0.15916 0.334209 2.92058 0.878381 -0.425484 -0.217739 18 36 58
-0.154992 0.334244 2.92303 0.744361 -0.603914 -0.284982 18 36 58
-0.145863 0.333699 2.92155 0.248772 -0.508022 -0.824637 18 36 57
-0.138455 0.333433 2.92386 0.247124 -0.497223 -0.831684 18 36 56
-0.124698 0.333981 2.94213 -0.0165784 -0.633813 -0.773309 18 37 58
-0.121649 0.334347 2.9437 -0.00147435 -0.66728 -0.744806 18 37 57
-0.169693 0.352856 3.13249 -0.00185819 0.44385 -0.896099 18 37 57
-0.073687 0.330574 2.94718 -0.0767658 -0.490763 -0.867905 18 37 58
0.224279 0.323426 3.13585 0.501036 0.73139 -0.462636 15 33 52
0.231336 0.322509 3.14179 0.499031 0.731864 -0.464051 15 33 53
0.244446 0.324175 3.1538 0.192024 0.742395 -0.641854 16 33 53
0.250554 0.323053 3.16418 0.200979 0.749346 -0.630943 16 34 53
0.253497 0.325101 3.1717 0.174944 0.734996 -0.655114 16 34 53
0.25002 0.327102 3.20747 0.430063 0.760475 -0.486543 16 33 53
0.25592 0.328961 3.21192 0.445076 0.7419 -0.501489 16 33 52
0.262012 0.32627 3.22386 0.492514 0.713845 -0.49785 15 32 52
0.270305 0.329852 3.23434 0.513021 0.719497 -0.468117 16 33 53
0.277834 0.329619 3.24023 0.552739 0.695721 -0.45875 16 33 52
0.290589 0.328195 3.26338 0.469657 0.740005 -0.481471 16 33 52
0.301344 0.327048 3.26597 0.46524 0.741421 -0.483577 17 34 54
0.309048 0.326449 3.27163 0.459502 0.743579 -0.485745 16 34 53
0.325927 0.325221 3.25402 0.753144 0.513366 -0.411374 16 34 53
0.337569 0.327365 3.28121 0.405042 0.612977 -0.678381 15 33 51
0.337193 0.329272 3.28245 0.431441 0.631142 -0.644607 15 33 51
0.347983 0.329284 3.29345 0.154821 0.668991 -0.726968 15 33 51
0.349877 0.326137 3.28987 0.160125 0.664565 -0.729872 15 33 51
0.359815 0.327441 3.28863 -0.0443497 0.588143 -0.80754 15 32 51
0.35802 0.327327 3.29237 0.159896 0.663785 -0.730632 15 32 51
0.36588 0.324806 3.28624 0.162735 0.608218 -0.776909 16 34 52
0.694388 0.670967 8.37923 0.465587 -0.277651 -0.84032 20 41 61
0.710602 0.675439 8.41294 0.459043 -0.310338 -0.832448 18 38 59
0.754575 0.679012 8.46006 0.455351 -0.319764 -0.830907 19 39 59
1.12561 0.688647 8.91889 0.444094 0.157016 -0.882115 21 41 63
1.17113 0.691664 8.96587 0.453305 0.109211 -0.88464 21 41 63
1.52784 0.67667 9.15117 0.425533 0.144489 -0.893333 23 45 66
1.52768 0.668039 9.11297 0.405959 0.0494116 -0.912555 22 46 66
1.52805 0.672267 9.14493 0.391238 0.0585309 -0.918426 23 46 67
-0.381065 0.353521 2.9145 0.356167 0.73673 -0.574782 18 37 55
-0.363667 0.352817 2.91243 0.329645 0.750073 -0.573346 19 37 56
-0.352372 0.352746 2.91435 0.338394 0.758552 -0.556856 19 37 55
-0.340111 0.352436 2.91524 0.366336 0.736151 -0.569105 18 36 54
-0.344521 0.354825 2.93635 0.783139 -0.53736 -0.31295 17 36 54
-0.337726 0.357383 2.95949 0.431617 -0.864779 -0.256639 19 36 55
-0.285662 0.355647 2.97979 -0.0340543 0.0654097 -0.997277 17 35 54
-0.177165 0.33718 2.86914 0.152501 0.0978215 -0.98345 18 35 55
-0.176147 0.337673 2.87265 0.191663 0.107518 -0.975554 18 35 55
-0.177988 0.340997 2.89728 0.440506 0.681965 -0.583848 18 35 55
-0.173898 0.34118 2.90221 0.444784 0.151011 -0.882815 54 69 85
-0.170135 0.341288 2.90425 0.383823 0.27454 -0.881651 54 69 85
-0.156059 0.338049 2.9192 0.249193 -0.493055 -0.833547 18 36 57
-0.151615 0.338045 2.92144 0.248222 -0.498783 -0.830423 18 36 57
-0.144209 0.337777 2.92379 0.246903 -0.496554 -0.83215 18 36 57
-0.117072 0.336879 2.94227 0.55013 -0.78921 -0.272957 54 70 86
-0.170382 0.358615 3.13825 -0.000414819 0.446247 -0.89491 18 37 56
-0.165945 0.357173 3.1406 0.00199491 0.453876 -0.891062 18 36 55
-0.0722333 0.33523 2.94534 0.370809 -0.876115 -0.308097 53 69 85
-0.0679481 0.337292 2.95668 0.228657 -0.391411 -0.891355 18 36 57
0.196415 0.327349 3.08044 0.946896 0.137211 -0.290793 15 33 51
0.206948 0.330161 3.15152 -0.0336257 0.521385 -0.852659 15 33 52
0.212764 0.332843 3.15337 -0.00295968 0.5637 -0.825974 15 33 52
0.221057 0.328852 3.14669 0.495449 0.733433 -0.46541 15 33 52
0.227965 0.327993 3.15282 0.495423 0.733024 -0.466081 16 33 53
0.23363 0.328789 3.15965 0.259802 0.773476 -0.578133 16 33 53
0.24056 0.32972 3.16518 0.201029 0.746531 -0.634255 15 33 52
0.25021 0.332263 3.21313 0.173236 0.736676 -0.65368 16 33 52
0.249713 0.332792 3.21244 0.173185 0.736495 -0.653898 16 33 52
0.256893 0.334006 3.21681 0.172686 0.736691 -0.653809 15 33 51
0.261519 0.330851 3.21671 0.530169 0.710596 -0.462573 16 33 52
0.273296 0.334604 3.23933 0.412073 0.764676 -0.495445 15 32 51
0.284375 0.334788 3.25905 0.299457 0.792463 -0.531346 16 32 51
0.288827 0.335917 3.26782 0.299629 0.792618 -0.531017 15 32 51
0.293298 0.331769 3.26877 0.30053 0.794051 -0.52836 16 33 52
0.301541 0.332288 3.27367 0.456974 0.74423 -0.487131 15 33 51
0.301412 0.332295 3.27365 0.46271 0.741529 -0.485834 15 33 52
0.312279 0.331199 3.27614 0.457691 0.743148 -0.488108 16 33 52
0.322252 0.331708 3.26534 0.724317 0.546374 -0.420524 16 33 51
0.334338 0.331245 3.27923 0.537233 0.549201 -0.640124 15 33 51
0.340072 0.332312 3.29649 0.243709 0.572184 -0.783078 15 33 51
0.345722 0.330648 3.30217 -0.0524885 0.541494 -0.839064 15 32 51
0.34947 0.33199 3.30156 -0.0570518 0.573398 -0.817288 14 32 50
0.353216 0.333288 3.30174 0.137118 0.613726 -0.777521 15 33 51
0.359586 0.328705 3.29469 -0.0372213 0.597127 -0.801283 15 33 51
0.364963 0.331462 3.3337 0.740896 0.408641 -0.532998 15 33 51
0.372663 0.334902 3.34428 0.642834 0.615784 -0.455603 15 32 51
0.375613 0.334578 3.35552 0.629342 0.627225 -0.458822 15 32 51
0.59333 0.690404 8.29182 0.469757 -0.283933 -0.835889 20 40 61
0.598675 0.686778 8.2724 0.468733 -0.280793 -0.837523 20 40 61
0.641841 0.690479 8.31938 0.46737 -0.28025 -0.838466 21 41 62
1.2209 0.695476 9.01761 0.451108 0.11062 -0.885587 21 42 63
1.27126 0.699324 9.06984 0.449391 0.111512 -0.886348 21 42 64
1.47207 0.685303 9.16287 0.448286 0.0498315 -0.8925 23 44 65
-0.363235 0.357689 2.91887 0.337778 0.758568 -0.557207 18 36 53
-0.356327 0.358089 2.92314 0.360974 0.77156 -0.523825 18 35 53
-0.337795 0.356724 2.92145 0.396699 0.788691 -0.469677 17 35 52
-0.330013 0.355634 2.92836 0.385289 0.784525 -0.485873 17 35 53
-0.329122 0.361504 2.96195 0.390491 0.264475 -0.881799 18 35 52
-0.31784 0.359413 2.94774 0.343966 0.32792 -0.879861 18 34 52
-0.290456 0.355923 2.95963 0.420889 0.593606 -0.685919 18 35 53
-0.277591 0.354048 2.95094 0.418817 0.249334 -0.873169 53 68 82
-0.15441 0.342135 2.92147 0.434969 0.303419 -0.847785 53 68 85
-0.149993 0.342134 2.92373 0.246723 -0.497178 -0.831831 18 36 56
-0.115253 0.340509 2.93619 0.258038 -0.702676 -0.663071 18 36 57
-0.110996 0.341176 2.94232 0.256172 -0.703163 -0.663278 18 37 57
-0.108405 0.340422 2.94699 0.453509 0.694726 -0.558288 18 37 57
-0.170934 0.363392 3.13754 0.310609 0.434363 -0.845488 19 36 56
-0.161059 0.363346 3.14884 0.538022 0.257314 -0.802697 18 36 54
-0.155355 0.360596 3.12955 0.357631 0.553885 -0.751872 18 36 54
-0.154213 0.359593 3.1472 0.205818 0.0166317 -0.978449 18 36 54
-0.0634074 0.336765 2.93116 0.35105 0.404386 -0.844533 18 36 56
-0.134346 0.362879 3.16225 0.398143 0.648973 -0.648318 17 35 54
0.210344 0.335071 3.15211 0.00621696 0.573251 -0.819356 15 33 52
0.215059 0.336062 3.15858 0.0129859 0.583803 -0.811792 15 33 52
0.217689 0.333791 3.15969 -0.0447473 0.509955 -0.859037 15 33 52
0.219858 0.337191 3.16432 -0.0424699 0.514233 -0.856598 16 33 52
0.229622 0.3328 3.15875 0.308614 0.788702 -0.531701 15 33 52
0.237048 0.333338 3.16392 0.27216 0.77734 -0.567162 15 32 52
0.240222 0.334935 3.17302 0.218801 0.754845 -0.618333 16 33 52
0.243721 0.336823 3.18032 0.213765 0.752429 -0.623021 15 33 51
0.246436 0.335733 3.21121 0.171482 0.734058 -0.657079 16 33 52
0.253598 0.336944 3.21558 0.170884 0.734352 -0.656906 15 33 51
0.257748 0.338629 3.22297 0.192035 0.746764 -0.636762 15 32 51
0.261184 0.335547 3.22418 0.193878 0.749044 -0.633518 15 32 51
0.266076 0.335252 3.23313 0.47392 0.738796 -0.479144 15 32 51
0.279987 0.338865 3.25809 0.29543 0.790051 -0.537159 15 32 50
0.284385 0.340056 3.26679 0.295506 0.790526 -0.536418 15 32 50
0.293314 0.337048 3.27663 0.299989 0.793063 -0.530149 15 33 51
0.30153 0.337581 3.2816 0.458102 0.742796 -0.488258 15 32 51
0.336441 0.335389 3.29542 0.0840278 0.14868 -0.985309 15 33 51
0.33884 0.334178 3.28695 0.258415 0.578772 -0.773463 15 33 51
0.337476 0.336316 3.31074 -0.0730942 0.455233 -0.887367 15 32 51
0.34087 0.33678 3.31332 0.340127 0.487005 -0.80445 15 32 51
0.353631 0.335269 3.30517 0.339169 0.483946 -0.806697 15 33 51
0.359085 0.336498 3.31799 0.795338 0.445686 -0.410854 15 32 51
0.363988 0.337108 3.3421 0.733923 0.43398 -0.522511 14 31 50
0.685391 0.69419 8.36657 0.466081 -0.279305 -0.839498 21 41 62
0.729502 0.697944 8.41429 0.465017 -0.277003 -0.84085 18 38 59
0.726435 0.698451 8.41248 0.457154 -0.314041 -0.832099 18 38 59
0.774498 0.701762 8.4623 0.425439 -0.416225 -0.803591 18 38 59
0.784119 0.698868 8.44906 0.482473 -0.272555 -0.832426 19 40 60
1.13699 0.714543 8.92888 0.442368 0.158711 -0.882678 20 40 62
1.5337 0.696898 9.14023 0.416652 0.177219 -0.891625 23 44 65
-0.332866 0.3599 2.92781 0.381292 0.781951 -0.493121 17 34 51
-0.328344 0.363071 2.9366 0.922951 -0.335289 -0.189056 18 33 49
-0.325091 0.362795 2.93334 0.926338 -0.336392 -0.169526 54 67 80
-0.321112 0.363831 2.94833 0.407095 0.791446 -0.455946 18 33 50
-0.319676 0.361394 2.96359 0.447605 0.650315 -0.613792 18 34 52
-0.315998 0.361542 2.96606 0.331692 0.174625 -0.927085 19 34 52
-0.310001 0.361385 2.96698 0.442723 0.643265 -0.624666 19 34 52
-0.30192 0.360994 2.9643 0.43741 0.62964 -0.642048 18 34 52
-0.290423 0.360626 2.96409 0.47833 0.605978 -0.635603 18 33 51
-0.285205 0.358923 2.9541 0.351956 0.374344 -0.857901 18 34 51
-0.285214 0.358925 2.95411 0.351585 0.372844 -0.858706 18 34 51
-0.28073 0.358935 2.95635 0.345243 0.352218 -0.869914 18 34 52
-0.280378 0.35955 2.96148 0.360752 0.414536 -0.835475 18 34 52
-0.157219 0.346227 2.9215 0.247256 -0.494316 -0.833377 17 34 54
-0.152811 0.346228 2.92377 0.246038 -0.49682 -0.832247 18 35 55
-0.171417 0.366458 3.1289 0.404164 0.641715 -0.651808 19 35 54
-0.171243 0.367464 3.13611 0.508187 0.473931 -0.719122 53 67 82
-0.168117 0.366875 3.14001 0.313048 0.441524 -0.840867 18 35 54
-0.160912 0.363497 3.14246 0.333128 0.500089 -0.799335 18 36 54
-0.160504 0.366226 3.13838 0.572789 0.541906 -0.615021 53 67 81
-0.154283 0.364737 3.15047 0.330633 0.50007 -0.800382 17 35 54
-0.150285 0.366945 3.14351 0.499896 0.565554 -0.655937 17 35 54
-0.151226 0.364639 3.16364 0.446714 0.717025 -0.53509 17 35 54
-0.14862 0.36338 3.15222 0.573609 0.221121 -0.78872 17 35 54
-0.144296 0.364362 3.1635 0.404021 0.785431 -0.468898 17 35 54
-0.138192 0.363293 3.15451 0.646733 0.471745 -0.599327 17 35 54
0.199557 0.334918 3.0887 0.741983 0.549102 -0.384641 15 32 50
0.200845 0.333993 3.09963 0.928527 0.211055 -0.30544 15 32 50
0.212688 0.338285 3.15724 0.00944073 0.577925 -0.816035 15 33 52
0.214717 0.340487 3.16867 0.163106 0.718932 -0.675673 15 32 51
0.232939 0.337369 3.16308 0.309023 0.787921 -0.532621 15 33 52
0.236443 0.338519 3.17203 0.262461 0.77271 -0.577956 14 32 51
0.250318 0.340309 3.21403 0.238251 0.766596 -0.596295 16 32 51
0.254063 0.342063 3.22179 0.238285 0.766701 -0.596146 15 32 51
0.262884 0.344246 3.23909 0.287024 0.785057 -0.54891 15 32 51
0.269423 0.339932 3.23771 0.4719 0.738341 -0.481832 15 32 50
0.27565 0.342887 3.25712 0.291082 0.787813 -0.542791 15 32 50
0.275717 0.342804 3.25714 0.292409 0.788252 -0.541439 15 32 50
0.289894 0.342778 3.28426 0.2597 0.780742 -0.568329 15 32 51
0.323345 0.339576 3.2772 0.43093 0.752776 -0.497623 15 32 50
0.319914 0.342422 3.27802 0.452326 0.742693 -0.493769 15 33 51
0.327524 0.339838 3.28681 0.425107 0.754492 -0.500026 15 33 51
0.331183 0.341496 3.31137 0.389259 0.76808 -0.50846 15 32 51
0.34008 0.341235 3.3137 0.266358 0.573394 -0.774773 15 32 51
0.343889 0.342014 3.32362 0.851787 0.299435 -0.42988 14 32 50
0.354588 0.341188 3.31998 0.668961 0.564934 -0.483054 15 32 51
0.360889 0.340091 3.32627 0.655126 0.607051 -0.449777 14 32 50
0.361061 0.343204 3.35272 0.710708 0.551866 -0.436277 15 32 51
0.368786 0.341668 3.35557 0.642756 0.616299 -0.455018 15 32 51
0.586221 0.71375 8.28358 0.475055 0.0628339 -0.87771 20 40 61
0.591677 0.709999 8.26365 0.472799 0.062305 -0.878965 20 41 61
0.596646 0.710877 8.27164 0.471239 0.0626324 -0.879779 20 41 61
0.60649 0.712763 8.28895 0.393531 0.1185 -0.911642 20 41 61
0.634591 0.713736 8.30951 0.472664 0.0601692 -0.879186 20 41 61
0.665277 0.715108 8.33435 0.460767 0.0682934 -0.88489 21 41 62
0.791188 0.712972 8.43592 0.422702 -0.417632 -0.804305 21 42 62
1.28283 0.730612 9.11146 0.4451 0.133517 -0.885471 20 41 63
1.27892 0.734818 9.13783 0.446891 0.136761 -0.884073 20 41 63
1.28698 0.731313 9.11788 0.447796 0.123479 -0.885569 20 41 63
1.61588 0.70224 9.1443 0.406616 0.18994 -0.893637 23 44 66
-0.333141 0.364189 2.92565 0.426619 0.785427 -0.448442 17 32 48
-0.328909 0.366904 2.93019 0.915978 -0.208858 -0.342584 52 65 77
-0.328105 0.36648 2.93098 0.438468 0.785156 -0.437352 17 31 46
-0.325222 0.365635 2.94149 0.356596 0.366168 -0.859512 17 32 48
-0.324753 0.365678 2.96408 0.520768 0.639061 -0.566041 54 66 80
-0.31365 0.367827 2.96651 0.447631 0.781003 -0.435499 18 32 49
-0.301936 0.366487 2.96929 0.431686 0.78572 -0.443048 18 32 49
-0.300974 0.365587 2.96816 0.379814 0.781139 -0.495544 18 32 50
-0.300545 0.36553 2.96787 0.367131 0.774374 -0.515325 18 32 50
-0.29688 0.366346 2.97388 0.438123 0.704477 -0.558355 16 31 48
-0.290549 0.365219 2.97226 0.429258 0.785839 -0.445191 17 33 49
-0.288029 0.365178 2.98086 0.440763 0.770427 -0.460618 17 33 50
-0.152112 0.349797 2.91872 0.40321 0.533966 -0.74317 16 33 52
-0.148489 0.349901 2.92151 0.407909 0.549033 -0.729502 17 34 53
-0.148442 0.351625 2.92815 0.432563 0.613188 -0.660976 17 34 52
-0.170651 0.371184 3.13245 0.396435 0.625558 -0.67195 18 34 52
-0.162232 0.370835 3.14002 0.294736 0.175082 -0.939403 52 66 80
-0.152341 0.368852 3.16234 0.449699 0.734762 -0.507834 17 35 54
-0.136254 0.367444 3.15826 0.443251 0.722154 -0.531058 17 35 54
-0.115235 0.368472 3.13826 0.929268 -0.306801 -0.205753 17 34 53
-0.11651 0.366426 3.13501 0.545255 0.48813 -0.681488 17 35 53
-0.112837 0.368955 3.14887 0.334853 0.512258 -0.790863 16 34 53
-0.0300335 0.363725 3.16524 0.276209 0.759448 -0.589023 18 34 54
-0.0219797 0.364024 3.17005 0.288656 0.767262 -0.572701 18 35 54
0.193152 0.338008 3.04893 0.849429 -0.462655 -0.253812 15 33 51
0.192977 0.337994 3.04906 0.860831 -0.441568 -0.252956 15 33 51
0.193506 0.345435 3.14081 0.148094 0.488983 -0.85963 14 32 50
0.198481 0.341771 3.14047 0.277095 0.607823 -0.744157 15 32 51
0.211683 0.343311 3.16743 0.15975 0.715359 -0.68025 15 33 52
0.2148 0.34575 3.17398 0.159654 0.71561 -0.68001 14 32 50
0.217875 0.342919 3.17521 0.161678 0.718486 -0.67649 14 32 50
0.225563 0.341962 3.16536 0.314735 0.788245 -0.528784 14 32 50
0.224679 0.343462 3.17896 0.301548 0.784902 -0.541293 15 33 50
0.230497 0.344265 3.18683 0.162927 0.721514 -0.672958 15 32 50
0.230631 0.344189 3.18595 0.314706 0.78857 -0.528315 15 32 50
0.239111 0.346227 3.20301 0.313883 0.789265 -0.527767 15 32 51
0.238502 0.346638 3.20323 0.300196 0.78543 -0.541278 15 32 50
0.24222 0.348066 3.212 0.286517 0.781436 -0.554316 15 31 49
0.246244 0.344201 3.21303 0.287876 0.783271 -0.551013 16 32 51
0.249706 0.34601 3.22172 0.269671 0.777567 -0.568038 16 32 51
0.254542 0.346845 3.22967 0.286525 0.783312 -0.551658 15 32 50
0.258709 0.348167 3.23808 0.286309 0.783618 -0.551335 15 32 50
0.267128 0.345552 3.24755 0.291396 0.786402 -0.544665 15 32 50
0.271359 0.346887 3.2561 0.290065 0.786319 -0.545494 14 31 49
0.271418 0.346816 3.25613 0.291351 0.786532 -0.544501 14 31 49
0.275748 0.348084 3.26474 0.292562 0.787337 -0.542686 15 31 50
0.285749 0.34651 3.28313 0.258362 0.779076 -0.571217 14 31 50
0.293275 0.34756 3.288 0.260077 0.779877 -0.569344 14 31 50
0.311184 0.346911 3.28174 0.258658 0.77935 -0.57071 15 32 51
0.322505 0.346048 3.30029 0.45229 0.742157 -0.494608 15 33 51
0.326894 0.346131 3.30984 0.361453 0.777237 -0.515028 15 32 50
0.331367 0.348477 3.31849 0.312718 0.790457 -0.526673 14 31 49
0.346437 0.350945 3.3544 -0.0973137 0.531566 -0.841408 14 31 51
0.347968 0.349114 3.35701 -0.0897683 0.542704 -0.835113 14 32 51
0.361279 0.350508 3.36143 -0.100914 0.533102 -0.840011 14 31 49
0.706756 0.718582 8.37774 0.470468 0.0552926 -0.880683 21 41 62
0.74713 0.72018 8.4127 0.425943 -0.418273 -0.80226 19 38 59
0.78941 0.723563 8.45587 0.364478 -0.505363 -0.782154 21 42 62
1.33588 0.734982 9.1677 0.449827 0.108148 -0.886544 21 41 63
-0.543465 0.413575 3.26428 0.416719 0.790691 -0.448501 17 32 48
-0.526525 0.416501 3.32694 0.418722 0.687754 -0.593014 16 31 47
-0.52505 0.418032 3.35294 0.305226 0.482321 -0.821099 15 31 46
-0.518526 0.417366 3.35577 0.177793 0.116412 -0.977158 16 32 47
-0.515449 0.417784 3.35911 0.293019 0.213611 -0.931939 16 31 47
-0.329461 0.372161 2.98167 0.371335 0.777568 -0.507442 17 30 46
-0.298599 0.370381 2.97224 0.381808 0.782923 -0.491176 16 30 45
-0.291252 0.369899 2.9804 0.38267 0.784087 -0.488642 16 31 46
-0.172185 0.374727 3.13001 0.37327 0.789882 -0.486576 18 33 51
-0.164913 0.375241 3.13998 0.389433 0.78884 -0.475473 17 33 49
-0.156394 0.374022 3.15119 0.420652 0.778963 -0.465047 17 33 51
-0.138904 0.372713 3.16739 0.403887 0.653134 -0.64054 18 34 53
-0.11266 0.368184 3.13223 0.915657 -0.319316 -0.244152 17 34 53
-0.113606 0.372142 3.14082 0.587795 0.280578 -0.758797 18 33 52
-0.109498 0.371591 3.13795 0.477444 0.29298 -0.828378 17 33 52
-0.110776 0.372048 3.14093 0.464964 0.331137 -0.821071 17 33 52
-0.0601095 0.370489 3.17404 0.457027 0.760761 -0.460835 17 33 52
-0.0553132 0.370666 3.18275 0.438031 0.769721 -0.46439 18 34 53
-0.04906 0.369568 3.17713 0.395615 0.778049 -0.487984 17 34 52
-0.0455525 0.369475 3.17454 0.407275 0.775371 -0.482624 17 33 52
-0.0254935 0.368167 3.169 0.331207 0.782438 -0.527344 18 34 53
0.188559 0.343443 3.0626 0.951655 -0.170021 -0.255824 15 33 50
0.188653 0.343392 3.06251 0.953514 -0.157958 -0.256631 15 33 50
0.190293 0.351021 3.15027 0.0450416 0.602226 -0.797054 15 32 49
0.197994 0.346926 3.14739 0.254487 0.760609 -0.597252 15 32 51
0.197272 0.346569 3.15029 0.164705 0.713765 -0.680744 15 32 51
0.203976 0.348184 3.1526 0.102734 0.665595 -0.739209 15 31 51
0.208743 0.35134 3.17147 0.152408 0.707679 -0.689901 15 32 50
0.208231 0.351563 3.17178 0.133755 0.693539 -0.707894 15 32 50
0.211173 0.348871 3.17304 0.139974 0.700447 -0.699844 15 32 51
0.211783 0.348552 3.1727 0.155831 0.71164 -0.685044 15 32 51
0.214736 0.351071 3.1794 0.146271 0.705444 -0.693508 15 32 49
0.214854 0.350979 3.17937 0.156628 0.712484 -0.683985 15 32 50
0.222237 0.347592 3.17636 0.353019 0.783248 -0.511762 15 32 50
0.220778 0.350842 3.18728 0.154228 0.711942 -0.685093 15 31 49
0.226453 0.348295 3.18507 0.314057 0.787219 -0.530712 15 32 50
0.234408 0.350608 3.20226 0.298573 0.783594 -0.544825 14 31 49
0.238209 0.351879 3.21099 0.281394 0.778766 -0.560661 15 31 49
0.246305 0.349396 3.22031 0.285912 0.781689 -0.554271 15 32 50
0.245773 0.349685 3.22066 0.264925 0.774586 -0.574309 15 32 50
0.249686 0.351256 3.22877 0.261006 0.773555 -0.577484 15 32 50
0.25042 0.350736 3.22865 0.285469 0.781873 -0.55424 15 32 50
0.25453 0.35209 3.23707 0.245705 0.768188 -0.591199 15 31 49
0.262896 0.349498 3.24655 0.286889 0.78407 -0.550389 15 32 50
0.267124 0.350826 3.25507 0.285114 0.783807 -0.551685 14 31 49
0.271308 0.352188 3.26368 0.243042 0.769935 -0.590026 14 30 48
0.284987 0.35501 3.28569 0.25746 0.776575 -0.575019 14 30 48
0.289115 0.351295 3.28685 0.258725 0.778196 -0.572253 14 31 50
0.300026 0.351768 3.2881 0.258727 0.778305 -0.572104 15 32 51
0.311062 0.352284 3.28914 0.257873 0.778281 -0.572521 15 32 50
0.318301 0.351337 3.29864 0.455036 0.740594 -0.494431 15 32 50
0.322395 0.351476 3.30848 0.450331 0.741805 -0.496918 15 32 50
0.326656 0.35278 3.31744 0.307206 0.791493 -0.528359 14 31 48
0.349986 0.356054 3.35442 -0.0605401 0.573195 -0.81718 14 30 48
0.352684 0.35399 3.3559 -0.0614833 0.575159 -0.815728 14 31 49
0.355714 0.351871 3.357 -0.140845 0.474713 -0.868798 14 32 49
0.358719 0.352496 3.35999 -0.106129 0.524598 -0.844709 14 31 49
0.363854 0.354306 3.36656 -0.094512 0.541886 -0.835121 14 31 48
0.369117 0.356101 3.37323 -0.0873183 0.553048 -0.828561 14 31 48
-0.560834 0.418123 3.24148 0.287853 0.339861 -0.895341 15 30 44
-0.558049 0.41857 3.24567 0.412052 0.792115 -0.450297 15 30 44
-0.551861 0.417816 3.24277 0.403658 0.792484 -0.457197 15 30 44
-0.548786 0.418198 3.25265 0.407255 0.792871 -0.45332 16 30 45
-0.545684 0.418559 3.26259 0.40637 0.792617 -0.454557 15 30 45
-0.542299 0.418859 3.2724 0.399916 0.792595 -0.460283 16 30 46
-0.539684 0.419388 3.28288 0.406848 0.79177 -0.455604 16 30 46
-0.534022 0.419956 3.30381 0.384054 0.789152 -0.479314 16 30 46
-0.525883 0.419725 3.31019 0.384056 0.789265 -0.479127 15 29 45
-0.533152 0.421695 3.32811 0.455158 0.670302 -0.586112 15 29 45
-0.331259 0.372911 2.93254 0.369097 0.773053 -0.515904 15 28 41
-0.529292 0.423997 3.36089 0.381084 0.376177 -0.844551 15 30 45
-0.517287 0.423096 3.35872 0.320722 0.520867 -0.791097 15 30 45
-0.511738 0.425006 3.3625 0.0448088 0.106722 -0.993279 15 29 44
-0.0542943 0.373042 3.16527 0.33963 0.733891 -0.588265 17 32 51
-0.0515967 0.373551 3.17527 0.385566 0.705695 -0.594418 17 33 51
-0.0446934 0.373065 3.1698 0.355355 0.767984 -0.532844 17 32 50
-0.0450681 0.373975 3.1798 0.337155 0.783226 -0.522382 17 33 51
-0.0412982 0.374878 3.18839 0.371298 0.755687 -0.539513 18 33 52
-0.0256479 0.373338 3.17673 0.330868 0.781436 -0.529041 17 33 52
-0.0265351 0.369864 3.18158 0.366783 0.764837 -0.529617 17 34 53
0.189618 0.348071 3.09927 0.709338 0.58271 -0.396596 14 31 49
0.188726 0.349088 3.11232 0.759667 0.527453 -0.380393 14 31 49
0.186524 0.352411 3.15321 0.508609 0.725227 -0.464071 15 32 50
0.192509 0.352833 3.1604 0.497234 0.73075 -0.467721 15 32 49
0.194073 0.352635 3.15754 0.19155 0.727484 -0.658844 15 31 49
0.205404 0.354189 3.17044 0.122473 0.68427 -0.718871 15 31 49
0.211772 0.353804 3.1781 0.142427 0.701455 -0.698337 15 31 49
0.214787 0.356343 3.18466 0.143011 0.702291 -0.697377 15 31 48
0.21777 0.353605 3.18598 0.147175 0.706694 -0.692042 16 31 49
0.217941 0.35341 3.18607 0.156727 0.713267 -0.683145 16 31 49
0.221051 0.355849 3.19281 0.157393 0.713953 -0.682274 15 30 48
0.220819 0.356145 3.19259 0.14752 0.707234 -0.691417 14 30 48
0.229964 0.357233 3.20913 0.186575 0.734398 -0.652572 14 30 48
0.241896 0.353332 3.21956 0.263227 0.772798 -0.577491 15 31 49
0.245804 0.354913 3.22763 0.263322 0.773105 -0.577035 15 31 49
0.276791 0.357019 3.27625 0.256041 0.774559 -0.578361 15 31 48
0.280889 0.358703 3.28451 0.256112 0.77489 -0.577886 14 30 47
0.300123 0.357162 3.29519 0.256745 0.776847 -0.57497 15 31 49
0.299993 0.357169 3.2953 0.25695 0.776902 -0.574805 15 31 49
0.311045 0.357651 3.29641 0.256991 0.777037 -0.574603 14 31 48
0.314814 0.357342 3.31048 0.444902 0.743925 -0.498637 15 32 49
0.322646 0.356841 3.3158 0.302951 0.776082 -0.553098 14 31 48
0.326188 0.35839 3.32559 0.277073 0.785011 -0.554065 14 31 47
0.330718 0.359858 3.33433 0.277155 0.785234 -0.553708 14 30 47
0.339515 0.358389 3.34495 -0.0923294 0.530595 -0.842582 14 30 48
0.341826 0.35642 3.34667 -0.119032 0.496771 -0.85968 14 30 49
0.34467 0.360144 3.35149 -0.0765674 0.552427 -0.830037 14 30 49
0.347296 0.358112 3.35296 -0.0636103 0.569301 -0.819665 14 30 49
0.352889 0.359688 3.35969 -0.14312 0.468234 -0.871937 14 30 48
0.366489 0.358096 3.37176 -0.0948502 0.542216 -0.834869 14 31 48
0.371769 0.359886 3.37858 -0.0828971 0.558736 -0.825192 14 30 48
0.760847 0.741426 8.40129 0.475023 0.0230315 -0.879672 20 41 61
1.29916 0.758133 9.12747 0.446787 0.124225 -0.885974 19 40 62
1.31577 0.761265 9.1555 0.447177 0.123434 -0.885888 20 40 62
-0.564585 0.423259 3.24242 0.503011 0.765413 -0.401401 15 28 41
-0.553944 0.422595 3.24102 0.391571 0.78778 -0.475474 15 28 41
-0.55085 0.422992 3.25086 0.392565 0.788398 -0.473625 15 28 42
-0.547739 0.423371 3.26076 0.393452 0.789134 -0.471659 15 28 43
-0.544582 0.423726 3.2707 0.394185 0.789792 -0.469943 15 28 43
-0.541689 0.424107 3.28092 0.381769 0.786416 -0.485594 15 28 43
-0.540105 0.424872 3.29197 0.362064 0.772859 -0.521151 16 29 43
-0.543284 0.427509 3.31864 0.378883 0.786744 -0.487321 15 29 43
-0.534584 0.426139 3.32539 0.38385 0.786247 -0.484227 15 28 44
-0.537266 0.428663 3.35009 0.401292 0.792075 -0.45998 15 28 43
-0.530377 0.428372 3.35791 0.366643 0.758553 -0.538675 15 29 44
-0.51728 0.429001 3.3626 0.22532 0.0735812 -0.971502 15 28 43
-0.501543 0.424472 3.35997 0.38944 0.271209 -0.880217 16 29 44
-0.500913 0.425177 3.36612 0.353392 0.376394 -0.856412 15 28 43
-0.507176 0.42695 3.37792 0.260909 0.318557 -0.911289 15 28 43
-0.108461 0.378337 3.13595 0.921074 -0.354123 -0.161928 16 31 47
-0.0546408 0.378157 3.17375 0.391925 0.782524 -0.483789 16 31 48
-0.0524639 0.378016 3.17191 0.342236 0.782413 -0.520292 16 31 48
-0.047782 0.378036 3.17807 0.35761 0.75185 -0.553929 17 32 49
-0.0405724 0.377596 3.17382 0.326608 0.778488 -0.535989 17 31 49
-0.0370738 0.378691 3.1824 0.332958 0.768363 -0.546587 17 31 49
-0.0292498 0.377454 3.17573 0.327214 0.778826 -0.535126 17 31 49
0.183423 0.354943 3.09936 0.693031 0.59121 -0.412527 14 30 47
0.185256 0.354247 3.10993 0.682639 0.607073 -0.406776 13 30 46
0.186198 0.354642 3.1335 0.76113 0.525877 -0.379651 14 30 47
0.188259 0.357629 3.15719 0.506154 0.725895 -0.465708 14 31 47
0.202059 0.3572 3.17948 0.0340774 0.602564 -0.797343 14 31 48
0.20831 0.356859 3.17675 0.122459 0.684824 -0.718346 15 31 47
0.211224 0.35954 3.18311 0.12336 0.685782 -0.717276 15 29 47
0.214156 0.356893 3.1844 0.126805 0.690107 -0.712512 15 30 48
0.217824 0.358888 3.19125 0.143553 0.702948 -0.696603 15 30 48
0.22005 0.361577 3.19869 0.230142 0.753233 -0.616177 14 29 47
0.226718 0.360218 3.20784 0.184259 0.731641 -0.656315 14 29 47
0.230693 0.362032 3.21512 0.235827 0.758352 -0.607691 14 29 47
0.238001 0.360511 3.224 0.238051 0.760937 -0.603578 15 29 47
0.241726 0.362369 3.23174 0.238253 0.76133 -0.603003 15 29 47
0.245206 0.361439 3.24473 0.206254 0.747768 -0.631112 15 30 48
0.253059 0.362571 3.24861 0.243521 0.765369 -0.595741 15 30 47
0.256874 0.359067 3.24982 0.245424 0.767315 -0.592448 15 30 48
0.260744 0.360861 3.25781 0.246258 0.767928 -0.591306 15 30 47
0.268775 0.364306 3.27385 0.253257 0.771098 -0.584182 14 28 45
0.272774 0.360671 3.27505 0.254243 0.772741 -0.581578 15 30 47
0.276824 0.362375 3.28332 0.254744 0.773172 -0.580784 14 29 46
0.289163 0.362048 3.30124 0.255673 0.775223 -0.577634 13 29 47
0.300113 0.362549 3.30243 0.255719 0.775334 -0.577465 14 30 47
0.307806 0.363621 3.30711 0.255852 0.775807 -0.576769 14 30 46
0.314256 0.361933 3.31885 0.340631 0.766379 -0.54464 14 31 47
0.321603 0.362441 3.32456 0.286533 0.778794 -0.558014 14 30 46
0.326243 0.363832 3.33314 0.275564 0.783578 -0.55684 14 30 46
0.333363 0.361931 3.34617 0.178684 0.750355 -0.636427 14 30 48
0.342086 0.36216 3.35002 -0.0859533 0.539203 -0.837778 14 30 47
0.349977 0.361801 3.35842 -0.0603105 0.573508 -0.816977 14 30 47
0.353432 0.365177 3.3627 0.279509 0.786309 -0.550993 13 29 46
0.357796 0.361154 3.36426 0.239444 0.776435 -0.582936 13 30 46
0.363442 0.362122 3.37284 0.208596 0.766628 -0.607264 13 30 46
0.368235 0.363429 3.38238 0.203242 0.765228 -0.610835 14 30 47
0.374451 0.36367 3.384 -0.078244 0.564689 -0.821586 13 29 46
-0.553269 0.430988 3.29811 0.359565 0.77755 -0.515876 15 27 40
-0.549667 0.431828 3.30745 0.380658 0.784495 -0.489558 16 27 41
-0.555434 0.434 3.33691 0.430608 0.784741 -0.445824 15 27 40
-0.541341 0.432582 3.33932 0.40838 0.790229 -0.456907 15 27 41
-0.550642 0.436018 3.36843 0.401806 0.79152 -0.460488 15 27 41
-0.535665 0.434804 3.3699 0.38508 0.788018 -0.480355 15 27 41
-0.520196 0.434127 3.36225 0.382336 0.788341 -0.482015 15 27 41
-0.514769 0.434181 3.36387 0.355491 0.779227 -0.51617 15 27 40
-0.510441 0.430925 3.36474 0.317498 0.764957 -0.560389 15 28 41
-0.512667 0.435564 3.38989 0.301593 0.756862 -0.579828 15 27 40
-0.511203 0.433141 3.3856 0.244198 0.259049 -0.934484 15 27 41
-0.505485 0.436603 3.39619 0.303714 0.75979 -0.574871 14 27 40
-0.491168 0.43485 3.41309 0.298142 0.758806 -0.579072 15 28 42
-0.483734 0.431443 3.39531 0.315439 0.765982 -0.560152 15 27 41
-0.0639317 0.383485 3.17753 0.342976 0.779698 -0.523869 16 29 45
-0.0564044 0.383784 3.18291 0.341296 0.781923 -0.521645 16 30 45
-0.0445077 0.383401 3.18465 0.326098 0.777134 -0.53826 15 30 46
-0.0409214 0.384494 3.19319 0.324259 0.777007 -0.539552 16 31 46
-0.0228325 0.379812 3.19328 0.320392 0.777256 -0.5415 16 32 49
0.179511 0.354026 3.07118 0.913315 -0.323595 -0.247268 14 31 47
0.179408 0.354025 3.07125 0.925818 -0.285167 -0.248075 14 31 47
0.183237 0.3582 3.07758 0.953446 -0.15764 -0.25708 14 29 45
0.1837 0.358111 3.07713 0.932891 -0.258271 -0.251018 14 28 45
0.180711 0.360409 3.11987 0.559258 0.689607 -0.460078 13 28 43
0.18078 0.361026 3.12178 0.545047 0.6891 -0.477562 13 28 43
0.1817 0.362386 3.14377 0.493748 0.725789 -0.479002 13 28 43
0.184031 0.362391 3.15397 0.504073 0.726357 -0.467242 14 29 44
0.214124 0.362231 3.18953 0.126558 0.688749 -0.713868 14 29 46
0.217089 0.364906 3.19598 0.127871 0.690363 -0.712073 14 29 45
0.223566 0.363488 3.20625 0.232736 0.755342 -0.61261 14 30 46
0.227135 0.365384 3.21389 0.233812 0.756168 -0.611181 14 28 45
0.234376 0.363899 3.22278 0.236103 0.758599 -0.607275 13 28 45
0.23804 0.365781 3.23053 0.237131 0.759519 -0.605723 14 28 44
0.24926 0.366056 3.2474 0.242088 0.7635 -0.598716 14 28 44
0.253042 0.36793 3.25535 0.241868 0.763712 -0.598535 14 28 43
0.253076 0.367882 3.25537 0.242955 0.763976 -0.597757 14 28 43
0.256907 0.364379 3.25659 0.244139 0.765766 -0.594978 14 29 45
0.256867 0.364435 3.25656 0.243411 0.765606 -0.595482 14 29 45
0.260857 0.366152 3.26449 0.250215 0.768498 -0.588901 14 28 44
0.260707 0.366259 3.26462 0.2443 0.766237 -0.594305 14 28 44
0.264824 0.367914 3.27262 0.251401 0.769146 -0.587548 14 27 43
0.272788 0.366027 3.28211 0.253605 0.771534 -0.583455 14 28 44
0.276844 0.367749 3.29041 0.253786 0.771841 -0.58297 14 27 44
0.279714 0.369432 3.31783 0.276102 0.780426 -0.560985 14 28 44
0.297898 0.368507 3.31182 0.275687 0.780532 -0.561041 14 29 45
0.305478 0.369454 3.31707 0.276609 0.778876 -0.562885 14 29 43
0.313128 0.365118 3.31442 0.272442 0.741693 -0.612916 13 29 45
0.325639 0.368503 3.36127 0.208492 0.762095 -0.612978 14 28 45
0.337642 0.366605 3.34782 0.259164 0.736988 -0.624246 13 28 45
0.345046 0.367816 3.35184 0.290659 0.769215 -0.569057 14 28 46
0.348996 0.369375 3.36113 0.297141 0.788967 -0.537808 14 28 45
0.35381 0.370673 3.37044 0.296944 0.789166 -0.537626 13 27 43
0.358673 0.366388 3.37158 0.296548 0.789534 -0.537304 14 29 45
0.363542 0.367688 3.38097 0.295763 0.790261 -0.536668 14 28 44
-0.549818 0.441444 3.37691 0.370948 0.784023 -0.4977 14 26 40
-0.542839 0.441413 3.38449 0.356884 0.779791 -0.514355 14 26 40
-0.540144 0.442454 3.39502 0.337706 0.772935 -0.537146 14 26 39
-0.526715 0.44074 3.41278 0.289274 0.751796 -0.592557 14 27 39
-0.502468 0.438294 3.40578 0.303467 0.760202 -0.574456 14 26 39
-0.499435 0.439992 3.41542 0.303489 0.760579 -0.573947 14 27 39
-0.494764 0.439178 3.41143 0.32636 0.770423 -0.547665 14 27 40
-0.486023 0.440115 3.41687 0.295706 0.757267 -0.582327 14 26 39
-0.0674718 0.387718 3.1765 0.346934 0.782102 -0.517642 15 28 43
-0.0638038 0.388625 3.18511 0.344904 0.781865 -0.519353 15 28 41
-0.0697685 0.394023 3.23509 0.352995 0.773026 -0.527092 14 28 43
-0.0702221 0.394109 3.23551 0.346704 0.780897 -0.519611 14 28 43
-0.0577748 0.393584 3.23673 0.337732 0.776916 -0.531356 14 28 42
-0.0583018 0.393783 3.23736 0.335417 0.780666 -0.52731 14 27 42
-0.0542208 0.390971 3.24116 0.365822 0.769083 -0.524104 14 29 44
-0.0398457 0.392273 3.22654 0.341609 0.34423 -0.874534 14 28 42
0.176909 0.36604 3.12844 0.464411 0.631788 -0.620618 13 26 40
0.185408 0.363832 3.1131 0.461851 0.620954 -0.633332 13 26 40
0.220063 0.367585 3.20248 0.130653 0.692475 -0.709513 13 28 42
0.23075 0.367276 3.22156 0.234952 0.756905 -0.60983 13 28 43
0.234403 0.369166 3.22929 0.234978 0.757294 -0.609337 13 27 43
0.238067 0.371066 3.23708 0.237297 0.758622 -0.606781 14 26 42
0.245493 0.369521 3.24618 0.240644 0.761551 -0.601773 14 27 43
0.253137 0.373249 3.26199 0.246682 0.76463 -0.595389 14 26 41
0.256882 0.369765 3.26335 0.242682 0.764282 -0.597477 15 27 43
0.256986 0.369712 3.26324 0.248596 0.766641 -0.591998 15 27 43
0.260907 0.371495 3.27137 0.249405 0.767093 -0.591071 14 27 42
0.260688 0.371613 3.27148 0.247265 0.766355 -0.592925 14 27 42
0.283138 0.374292 3.32176 0.276552 0.779552 -0.561978 14 27 42
0.29434 0.374598 3.32319 0.276488 0.779083 -0.562658 15 27 42
0.302067 0.375523 3.3283 0.280637 0.780619 -0.55846 14 28 42
0.308829 0.371274 3.3256 0.253156 0.773895 -0.580516 14 29 43
0.341316 0.374005 3.36347 0.29795 0.788085 -0.538653 12 26 42
0.358662 0.371977 3.3798 0.296066 0.789112 -0.538189 13 27 43
0.363548 0.373296 3.38919 0.295897 0.789236 -0.5381 13 27 43
-0.515831 0.449965 3.43558 0.280346 0.747342 -0.602401 14 25 37
-0.117231 0.400693 3.23521 0.356348 0.784436 -0.507618 14 24 38
-0.105438 0.400185 3.23758 0.335913 0.773493 -0.537467 15 26 40
-0.093712 0.399952 3.23942 0.333968 0.77754 -0.53282 13 26 39
-0.0819397 0.399705 3.24132 0.337633 0.779816 -0.527154 14 25 39
-0.0701482 0.399405 3.2433 0.337308 0.780242 -0.526731 15 25 40
-0.0623963 0.399763 3.2488 0.338753 0.780979 -0.524708 14 25 39
0.226882 0.380068 3.26842 0.481622 0.730576 -0.484045 13 24 39
0.241786 0.372952 3.24492 0.238277 0.759254 -0.605606 14 26 42
0.245538 0.374838 3.25281 0.238119 0.759643 -0.605179 13 26 41
0.350455 0.376872 3.38236 0.280958 0.784734 -0.552498 13 26 42
-0.401427 0.447629 3.44481 0.330192 0.774035 -0.540225 13 23 34
-0.121488 0.406424 3.24689 0.333514 0.776751 -0.534253 14 24 36
-0.109642 0.406183 3.24882 0.333669 0.776496 -0.534527 14 24 36
-0.0981858 0.406003 3.25102 0.319778 0.772146 -0.54912 13 24 35
0.230874 0.384726 3.27245 0.408414 0.760062 -0.505475 12 23 37
0.244017 0.383226 3.27281 0.454085 0.74086 -0.494907 12 23 36
0.253323 0.378578 3.26858 0.264086 0.76871 -0.582532 13 25 38
-0.436733 0.451038 3.4359 -0.0378217 0.392835 -0.918831 14 23 34
-0.427815 0.452521 3.44 -0.027523 0.417424 -0.908295 14 23 33
-0.422391 0.449986 3.43018 0.00404224 0.472048 -0.881564 14 23 34
-1.1182 0.713102 5.75161 -0.0938163 0.404505 -0.909711 15 26 39
-1.11819 0.713119 5.75163 -0.0940963 0.403829 -0.909982 15 26 39
-0.434166 0.456905 3.4409 0.24455 0.72648 -0.642201 13 21 31
-0.423633 0.455807 3.44509 0.489769 0.757234 -0.432114 14 22 32
-0.414266 0.455689 3.45087 0.459153 0.767547 -0.44727 12 21 31
-1.14285 0.726516 5.70475 0.661075 0.275873 -0.697763 13 21 29
-1.14045 0.728929 5.7442 0.664823 0.269732 -0.696602 14 22 32
-1.12417 0.723364 5.75688 -0.0929194 0.404025 -0.910016 12 24 35
-0.992656 0.723947 5.80037 -0.178966 0.268891 -0.946398 9 17 26
-0.985609 0.72304 5.79334 -0.15486 0.326188 -0.932534 11 22 33
0.16107 0.384448 3.13994 0.782798 -0.569296 -0.251256 13 19 28
-0.442819 0.462215 3.44361 0.280539 0.747117 -0.60259 13 21 28
-0.429017 0.462027 3.44466 0.324311 0.758416 -0.565357 12 20 29
-0.409664 0.459298 3.44256 0.369134 0.783118 -0.500466 12 20 31
-0.401204 0.463784 3.44979 0.0523959 0.548316 -0.834629 11 19 29
-0.394324 0.460179 3.44805 0.0548785 0.554781 -0.830185 11 20 29
-1.1619 0.732092 5.66942 0.65944 0.281312 -0.697139 11 17 25
-1.12865 0.732477 5.74759 0.663145 0.269938 -0.69812 11 19 29
-1.11249 0.745638 5.84865 0.661262 -0.457373 -0.594594 10 18 27
-1.05978 0.734425 5.81924 -0.231147 0.0910247 -0.968652 9 18 27
-1.05187 0.736066 5.83037 -0.24777 0.0252157 -0.968491 9 17 26
-1.03052 0.733321 5.80821 0.651127 -0.457016 -0.605945 10 17 26
-1.02318 0.733146 5.80577 0.649781 -0.458036 -0.606619 13 20 29
-1.00852 0.732728 5.80098 0.646074 -0.462178 -0.607437 12 19 27
-1.00852 0.732659 5.8011 0.647892 -0.456888 -0.6095 12 19 27
-1.01584 0.732956 5.80338 0.648255 -0.459385 -0.607232 13 20 29
-1.01584 0.732862 5.80363 0.650139 -0.455224 -0.60835 13 20 29
-1.00122 0.732418 5.79858 0.645763 -0.460865 -0.608765 12 19 27
-0.986611 0.73182 5.79372 0.640673 -0.467764 -0.60888 12 18 26
-0.993908 0.732139 5.79619 0.642699 -0.465527 -0.60846 12 19 26
-0.979337 0.731527 5.7915 0.641907 -0.463571 -0.610784 12 18 25
0.161951 0.389479 3.13291 0.828619 -0.503139 -0.245442 10 16 24
-1.88776 0.640103 4.03475 0.98808 0.111397 0.106248 23 28 27
-1.8466 0.641614 4.0825 0.183235 0.0530992 -0.981634 46 47 42
-0.430861 0.469797 3.46364 0.0170266 0.495486 -0.868449 43 46 49
-0.413572 0.465029 3.44135 0.454711 0.76746 -0.451933 12 19 29
-0.41544 0.468573 3.45772 0.02555 0.510162 -0.859699 30 35 41
-0.413827 0.467043 3.46009 0.372267 0.776681 -0.508117 11 19 29
-0.41539 0.475731 3.5461 0.364885 0.779665 -0.508902 11 18 26
-1.16633 0.740534 5.65959 0.658295 0.283088 -0.697502 12 18 27
-1.16993 0.734446 5.66278 0.659227 0.283132 -0.696604 10 16 23
-1.15886 0.738361 5.67011 0.671559 0.25283 -0.696481 12 18 27
-1.10653 0.753304 5.83842 0.660686 -0.457819 -0.594891 10 17 25
-1.05354 0.743198 5.81821 0.652182 -0.461493 -0.601401 10 17 24
-1.01726 0.740779 5.79598 0.646276 -0.464563 -0.6054 12 18 25
-1.02459 0.741026 5.79834 0.648864 -0.460961 -0.605385 12 19 26
-1.00993 0.740493 5.79363 0.643801 -0.467871 -0.605489 12 18 24
-0.99532 0.739887 5.78882 0.642445 -0.467042 -0.607565 12 17 24
-1.00262 0.74019 5.79121 0.643032 -0.467639 -0.606485 12 17 24
-0.988038 0.739572 5.7864 0.641658 -0.466873 -0.608526 11 17 23
-0.973509 0.73892 5.78161 0.639715 -0.46728 -0.610257 11 17 23
-0.980768 0.73925 5.78398 0.640836 -0.466749 -0.609488 11 17 23
-0.861279 0.722457 5.72237 -0.563225 0.336023 -0.754895 13 19 26
-0.363222 0.684201 5.71559 0.521267 0.358081 -0.774635 13 21 31
-0.357639 0.682579 5.71181 0.519787 0.358985 -0.77521 13 22 32
-1.33368 0.62458 4.29134 0.61652 0.307777 -0.724691 74 68 56
-1.34239 0.628915 4.30582 0.640678 0.263786 -0.721075 76 69 57
-1.32726 0.623885 4.27942 0.868109 -0.0154199 -0.496134 54 52 43
-1.35701 0.656827 4.56325 0.714154 -0.164375 -0.680415 60 55 47
-1.13951 0.667434 4.87128 0.59835 -0.0808289 -0.797147 30 30 28
-1.14147 0.666485 4.86366 0.458506 -0.37846 -0.804077 30 30 29
-1.13702 0.668322 4.87733 -0.111243 -0.297536 -0.948208 29 29 28
-1.13299 0.671954 4.88348 0.611111 -0.100799 -0.785101 32 32 29
-0.442093 0.472101 3.44161 0.347541 0.773648 -0.529796 12 19 25
-0.426742 0.471037 3.44235 0.366974 0.779193 -0.508122 12 19 26
-0.416935 0.470648 3.43967 0.452865 0.767222 -0.454186 12 19 26
-0.423555 0.472015 3.45309 0.35731 0.772806 -0.524499 12 18 26
-0.424493 0.475506 3.46523 0.370471 0.781294 -0.502325 12 19 26
-0.405375 0.47137 3.4578 0.451323 0.569883 -0.686689 12 19 26
-0.420551 0.479908 3.53133 0.388296 0.778311 -0.493415 12 18 25
-0.417854 0.480779 3.54325 0.388357 0.78143 -0.488411 11 17 25
-1.17086 0.748242 5.64477 0.657234 0.284143 -0.698073 10 16 24
-1.16291 0.746197 5.65539 0.671125 0.252564 -0.696996 11 16 25
-1.15464 0.744166 5.66684 0.661429 0.273343 -0.698423 12 17 25
-1.10855 0.744843 5.70415 0.609815 -0.546549 -0.573943 12 18 25
-1.10847 0.744727 5.70429 0.613076 -0.541272 -0.575468 12 18 25
-1.11605 0.745851 5.7068 0.642079 -0.492187 -0.587782 12 18 25
-1.11596 0.745682 5.70693 0.643989 -0.488107 -0.589092 12 18 25
-1.09356 0.741769 5.70015 0.565687 -0.607433 -0.557695 12 17 24
-1.09313 0.760813 5.82572 0.660113 -0.456425 -0.596597 9 15 21
-1.10057 0.760932 5.82828 0.659688 -0.459181 -0.594949 9 15 22
-1.04767 0.750739 5.80816 0.652396 -0.460426 -0.601986 9 16 22
-1.05505 0.750928 5.81061 0.653508 -0.459924 -0.601163 9 15 21
-1.04031 0.750535 5.80568 0.6516 -0.460271 -0.602966 10 16 22
-1.02563 0.750102 5.80076 0.649703 -0.460623 -0.604741 12 18 23
-1.01824 0.749862 5.79838 0.647106 -0.464233 -0.604766 12 18 23
-1.01085 0.749584 5.796 0.644336 -0.468113 -0.604733 11 17 22
-1.01086 0.749588 5.79606 0.645698 -0.465348 -0.605414 11 17 22
-0.996238 0.748968 5.79124 0.642782 -0.46777 -0.606649 11 16 22
-1.00354 0.749272 5.79359 0.643641 -0.467791 -0.605721 11 16 22
-0.988945 0.74865 5.78883 0.642219 -0.467129 -0.607737 11 16 22
-0.974387 0.747989 5.78403 0.640305 -0.467471 -0.609491 11 16 21
-0.981668 0.748315 5.78636 0.640979 -0.467876 -0.608472 11 16 21
-0.960515 0.738936 5.77707 0.584632 -0.56171 -0.585395 11 16 22
-0.966265 0.738577 5.7792 0.638892 -0.467162 -0.611209 11 16 23
-0.95903 0.738225 5.77684 0.637717 -0.467787 -0.611957 11 16 23
-0.913981 0.732439 5.73492 -0.264646 -0.232234 -0.935965 10 16 21
-0.890768 0.732378 5.72802 0.590506 -0.538297 -0.601282 11 17 23
-0.867674 0.732545 5.72213 -0.271631 -0.310682 -0.910875 11 16 22
-0.35829 0.689984 5.70805 0.518767 0.359503 -0.775654 12 19 28
-0.346949 0.684202 5.7045 0.537844 0.322497 -0.778922 13 21 30
-0.250697 0.864949 7.60942 0.578123 0.361237 -0.73163 22 40 59
-1.85621 0.65569 4.07088 0.420902 -0.830021 -0.365932 39 43 40
-1.39897 0.646349 4.37203 0.724994 0.0363135 -0.687797 62 57 49
-1.34936 0.639916 4.31849 0.634672 0.278135 -0.720994 83 76 63
-1.33891 0.633282 4.29975 0.452281 0.520805 -0.724019 67 63 54
-1.34581 0.637356 4.31331 0.629437 0.282523 -0.723871 68 64 55
-1.35089 0.63759 4.32445 0.657586 0.230072 -0.717389 67 62 53
-1.36173 0.661994 4.57436 0.727724 -0.141499 -0.671116 64 58 49
-1.24626 0.681555 4.82339 -0.00648703 0.239235 -0.97094 62 61 57
-1.22197 0.677096 4.81769 0.0305757 0.337813 -0.940717 43 42 38
-1.17731 0.674304 4.85058 -0.10144 -0.185228 -0.977446 37 37 33
-1.16784 0.673727 4.86555 0.481249 -0.120488 -0.868264 35 35 32
-1.14172 0.674289 4.868 0.47416 -0.0913546 -0.875686 36 35 32
-1.13805 0.677268 4.89619 -0.108147 -0.322716 -0.940297 35 34 30
-1.25951 0.718773 5.17819 0.336411 0.412092 -0.846763 26 27 26
-0.433055 0.484429 3.49468 0.450487 0.76585 -0.458842 13 19 26
-0.426304 0.484476 3.51751 0.46517 0.761533 -0.451314 12 18 23
-0.39458 0.481735 3.5202 0.599996 0.319192 -0.733567 13 19 25
-0.385979 0.480947 3.523 0.132506 0.0777963 -0.988124 12 18 24
-0.380125 0.480995 3.52407 0.386934 0.780477 -0.491057 12 18 24
-0.376388 0.481699 3.53521 0.390142 0.780339 -0.488733 12 18 24
-1.18485 0.750201 5.58148 0.677101 0.238797 -0.696068 9 15 21
-1.17391 0.753722 5.61076 0.712675 -0.328154 -0.620008 10 16 21
-1.16705 0.75397 5.64068 0.667754 0.259345 -0.697743 10 15 22
-1.15917 0.751886 5.65206 0.657226 0.281334 -0.699218 10 15 23
-1.10801 0.752751 5.69506 0.578363 -0.593359 -0.559841 10 16 22
-1.0931 0.749776 5.69193 0.568112 -0.604927 -0.557953 12 17 23
-1.0931 0.749733 5.69207 0.570871 -0.601256 -0.559105 12 17 23
-1.1007 0.751264 5.69357 0.575098 -0.596714 -0.559637 12 17 23
-1.1007 0.751187 5.69374 0.578383 -0.592197 -0.561049 12 17 23
-1.0855 0.748188 5.69046 0.563462 -0.60976 -0.557407 12 17 24
-1.07739 0.754503 5.68063 0.558755 -0.615295 -0.556062 10 15 20
-1.10911 0.771231 5.83284 0.656885 -0.468257 -0.590964 9 15 20
-1.10162 0.771021 5.83032 0.656889 -0.46655 -0.592307 9 14 20
-1.0857 0.760687 5.82316 0.659384 -0.45618 -0.597589 9 14 21
-1.04873 0.759866 5.81057 0.652993 -0.46034 -0.601405 9 15 21
-1.05611 0.760073 5.81308 0.654001 -0.460297 -0.60034 9 15 21
-1.04137 0.75965 5.80813 0.651734 -0.461124 -0.602169 9 15 21
-1.04138 0.759642 5.80816 0.653432 -0.457828 -0.602844 9 15 21
-1.02656 0.759248 5.80333 0.647649 -0.466339 -0.60256 11 16 21
-1.02667 0.7592 5.80325 0.650297 -0.460791 -0.603975 11 16 21
-1.03402 0.759423 5.80568 0.650879 -0.461404 -0.602879 8 14 19
-1.01923 0.758967 5.80084 0.64767 -0.464481 -0.603972 11 16 20
-1.00447 0.758368 5.79595 0.643842 -0.468724 -0.604785 11 15 21
-0.953232 0.745559 5.76707 0.636974 -0.468492 -0.612192 11 15 20
-0.953193 0.745621 5.76741 0.578273 -0.570251 -0.583451 11 15 20
-0.94114 0.746599 5.77121 0.545856 -0.614049 -0.570075 10 14 20
-0.930753 0.744031 5.74898 -0.270425 -0.185477 -0.944705 10 15 19
-0.919508 0.743925 5.74443 -0.271199 -0.105672 -0.956705 10 15 20
-0.908003 0.743931 5.74122 -0.272169 -0.133079 -0.953003 8 14 20
-0.897179 0.742667 5.72874 -0.274856 -0.254286 -0.92725 10 15 20
-0.88565 0.742651 5.72521 -0.276043 -0.254182 -0.926926 10 15 20
-0.874144 0.742638 5.72168 -0.277246 -0.25328 -0.926814 11 15 20
-0.846079 0.729966 5.69624 -0.271287 -0.324275 -0.906228 11 16 22
-0.359007 0.697406 5.70428 0.516012 0.363252 -0.775745 12 18 26
-0.347146 0.698329 5.69677 0.538203 0.319107 -0.780069 12 17 25
-0.347083 0.691279 5.7006 0.537311 0.322108 -0.779451 12 19 27
